ply
format ascii 1.0
comment PCL generated
element vertex 520
property float x
property float y
property float z
property float intensity
property float nx
property float ny
property float nz
property float curvature
element camera 0
property float view_px
property float view_py
property float view_pz
property float x_axisx
property float x_axisy
property float x_axisz
property float y_axisx
property float y_axisy
property float y_axisz
property float z_axisx
property float z_axisy
property float z_axisz
property float focal
property float scalex
property float scaley
property float centerx
property float centery
property int viewportx
property int viewporty
property float k1
property float k2
end_header
3.9374633 15.53036 -0.76607436 0.040904801 0.26189569 0.60384947 -0.75284559 0.20868286
3.9851725 15.535936 -0.74408895 0.041301485 0.26112631 0.61571336 -0.7434448 0.21681236
4.0280018 15.538642 -0.72636157 0.043978937 0.22352563 0.68100166 -0.6973328 0.23511654
3.1716316 15.545777 -0.77397013 0.037566874 0.49793378 0.53873473 -0.67957836 0.21276423
3.2116849 15.547125 -0.745125 0.038942505 0.35484889 0.74943233 -0.55895752 0.20398286
4.0148697 15.540211 -0.72775483 0.019547934 0.003424939 0.98295677 -0.18380496 0.11872327
3.2740753 16.069269 -0.77932054 0.016071327 0.60131603 -0.14175001 -0.78633708 0.062221587
1.7311656 16.108305 -0.77296388 0.02605515 -0.63610297 0.7122553 -0.29675823 0.1555714
1.7610263 16.128029 -0.77739066 0.033957098 -0.40267563 0.56057674 -0.72360635 0.18934184
3.2875361 16.12595 -0.77555758 0.017309712 0.51873761 -0.086043119 -0.85059273 0.05978616
1.7857981 16.157173 -0.77043229 0.03619105 -0.51432115 0.60227329 -0.61052483 0.2064275
1.8124059 16.185881 -0.76529348 0.039962705 -0.37816438 0.49670219 -0.78120327 0.20587248
3.2858608 16.173979 -0.77548659 0.022240518 0.09557499 0.1239794 -0.98767126 0.064571127
3.3097489 16.168093 -0.7674042 0.019869883 0.54499084 -0.12102029 -0.82966202 0.067704782
1.8424407 16.219404 -0.75858569 0.03738543 -0.54986638 0.61079299 -0.5697183 0.2167027
1.8709589 16.248123 -0.75504869 0.036857624 -0.49773034 0.54794139 -0.67232788 0.20298314
3.2920337 16.20994 -0.77110922 0.020448197 0.012535998 0.16752696 -0.98578775 0.067998327
3.3275793 16.231457 -0.76033121 0.022289105 0.37916669 -0.01949273 -0.92512304 0.069215059
1.9009331 16.280313 -0.75002265 0.038401328 -0.41471335 0.50328583 -0.75810039 0.19649394
1.9285353 16.310682 -0.74535048 0.036186323 -0.35164025 0.4096368 -0.84175223 0.21429543
3.3446538 16.284407 -0.75382775 0.024821961 0.24518548 0.054437332 -0.96794659 0.062904224
3.3693125 16.291346 -0.74476719 0.018552294 0.53049761 -0.10111358 -0.84163433 0.061126053
1.9581857 16.349331 -0.73809773 0.038130984 -0.52655303 0.56037396 -0.63931447 0.20142135
1.9840779 16.37916 -0.73351198 0.035710953 -0.48327944 0.5575828 -0.67493886 0.19581938
3.3568957 16.339148 -0.74815315 0.018770842 0.079198964 0.12522152 -0.98896271 0.061295789
3.3894169 16.350702 -0.7385869 0.021345178 0.37753826 -0.040767156 -0.92509609 0.061227392
2.0106685 16.408648 -0.72864145 0.034790389 -0.43850103 0.50247568 -0.74514091 0.19893956
2.0451567 16.426054 -0.73114526 0.016464705 -0.0011333204 0.17339706 -0.98485136 0.10276564
3.4010401 16.410383 -0.73458159 0.022836585 0.1041071 0.11670328 -0.98769528 0.066497184
3.4320722 16.418108 -0.72427511 0.02073968 0.48563695 -0.10673214 -0.86762035 0.062109433
2.0375328 16.442703 -0.72249758 0.047697321 -0.49874389 0.51264513 -0.69889158 0.19382775
2.0491796 16.453484 -0.72142124 0.03711082 -0.24741688 0.35654262 -0.90092295 0.18021858
3.4282551 16.461603 -0.72527182 0.020740736 0.11106359 0.13330667 -0.98483205 0.057794224
1.3960456 12.863167 -0.67819571 0.015520728 -0.79512841 -0.60608256 0.020851366 0.017157786
2.3520591 12.85265 -0.70797831 0.016326349 0.69848162 -0.71468115 0.036801022 0.017876394
2.4332013 13.376179 -0.68701541 0.036364727 0.80157053 -0.5969792 0.033174515 0.18563306
2.4416497 13.382526 -0.69752693 0.019243376 0.17342699 -0.98353916 0.050732024 0.11293987
3.476866 13.532607 -0.71548176 0.039743986 0.47353396 -0.76265782 -0.44058889 0.23122711
3.5091975 13.537891 -0.68974632 0.040307812 0.47650146 -0.73128861 -0.48801973 0.20740487
3.7095528 14.386635 -0.71116292 0.041681025 0.4456239 -0.66769755 -0.59632152 0.21822485
3.7515683 14.391292 -0.68885761 0.043079402 0.29630002 -0.88444895 -0.3604947 0.22963832
3.7942047 14.395709 -0.66669393 0.041949436 0.34015182 -0.81999975 -0.46032283 0.2259572
3.8591154 14.399288 -0.66542661 0.015614879 0.0011333204 -0.98485136 0.17339706 0.051941305
4.8197169 14.408471 -0.69063848 0.039600637 0.5817259 -0.80226475 0.13403845 0.20818114
0.011791514 14.674577 -0.69272447 0.038355757 -0.51433593 -0.85674977 0.037926298 0.20979354
3.9771659 15.237427 -0.71580958 0.04510399 0.13391633 0.87092012 -0.47282612 0.19292715
4.8170996 15.230203 -0.68967384 0.036228612 0.72173727 0.6806556 -0.12571144 0.21745519
4.002933 15.241904 -0.70304233 0.03633289 0.30624104 0.47409558 -0.82549977 0.21829867
4.0487041 15.24536 -0.68433738 0.041028757 0.25833875 0.58490783 -0.76885891 0.21799557
4.0983315 15.248167 -0.66644096 0.041186251 0.24236061 0.63828391 -0.73065382 0.22874381
0.012044562 15.415604 -0.69435602 0.036781214 -0.53158516 0.84625983 -0.035519771 0.21075222
4.0614958 15.537387 -0.71512759 0.041424274 0.3064425 0.35032812 -0.88507801 0.21838792
4.1046391 15.538604 -0.70015997 0.038683392 0.26793644 0.47679824 -0.83718193 0.19602844
3.2713614 15.556845 -0.69668829 0.042968441 0.36213115 0.69297326 -0.6234172 0.21506093
3.3101883 15.565846 -0.66446346 0.04224135 0.43792278 0.60825783 -0.66200155 0.21060352
4.042891 15.54065 -0.71821421 0.028619502 0.010462499 0.97998691 -0.19878697 0.16254747
4.1286111 15.54138 -0.69132137 0.040940598 0.1763673 0.72545755 -0.6652863 0.27398637
4.175046 15.543393 -0.67666727 0.0426546 0.24125825 0.48241973 -0.84206039 0.20795013
4.2154918 15.545827 -0.66363102 0.038321938 0.24127221 0.45326522 -0.85810155 0.21756005
2.0653639 16.477432 -0.71480697 0.037667517 -0.52325392 0.55691928 -0.64501649 0.20456444
3.4599276 16.482239 -0.71499145 0.020143252 0.38450482 -0.055194002 -0.92147142 0.052565217
2.0919049 16.510498 -0.70817775 0.044966698 -0.58797193 0.58981061 -0.55354536 0.22165816
2.1120899 16.535448 -0.70298451 0.036686987 -0.41606805 0.48623905 -0.76841325 0.21120586
3.4563525 16.526972 -0.71414727 0.01881233 0.11514396 0.11104216 -0.98712283 0.051078547
3.4900188 16.533621 -0.70518708 0.01874475 0.42092851 -0.076606996 -0.90385318 0.052547552
2.1446424 16.577097 -0.69432414 0.042354643 -0.61384296 0.62390995 -0.48366636 0.20770273
2.1704297 16.607019 -0.68929523 0.034909304 -0.57202303 0.58788234 -0.57200009 0.2026094
3.4714978 16.567055 -0.70801026 0.017920909 0.012544194 0.1691287 -0.9855141 0.046718791
3.5115113 16.590078 -0.6981374 0.018239051 0.25287774 0.020261798 -0.96728617 0.040790316
2.2009335 16.643187 -0.6834603 0.037900455 -0.50742728 0.5525896 -0.66118246 0.17984124
2.229094 16.672359 -0.67953724 0.037491858 -0.45962965 0.53814244 -0.70650083 0.18504314
3.5256007 16.646742 -0.69210798 0.019766364 0.06774772 0.14291197 -0.98741406 0.038458984
3.5576723 16.660952 -0.68422139 0.019830884 0.31181458 -0.02108583 -0.94990897 0.045825157
2.2607756 16.704515 -0.67510146 0.036589611 -0.50955379 0.56824785 -0.64610314 0.18089503
2.291415 16.733091 -0.67189246 0.03236226 -0.38477278 0.49577725 -0.77855945 0.17229089
3.5749326 16.708691 -0.67886412 0.018948322 0.16290306 0.061147094 -0.9847455 0.049266376
3.6121421 16.725204 -0.6691345 0.019588573 0.44945469 -0.12704317 -0.8842231 0.045052491
2.3217158 16.766197 -0.66638982 0.038736794 -0.3914097 0.51533151 -0.76238567 0.20160574
3.6204979 16.764208 -0.66730756 0.019511769 0.29013816 -0.022734106 -0.95671469 0.042934142
3.6418805 16.809277 -0.66205072 0.018876959 0.13999304 0.078819729 -0.98701036 0.052885469
1.4006857 12.861554 -0.62654918 0.016931541 -0.75661528 -0.6530574 0.032394875 0.020834936
2.358506 12.862505 -0.64990807 0.015446968 0.81394982 -0.5801999 0.029218692 0.02561231
2.4308472 13.376204 -0.63130236 0.035633668 0.84156632 -0.53962767 0.023832887 0.17359807
3.5723536 13.544606 -0.63631201 0.035490509 0.43322399 -0.77043474 -0.4677043 0.19421075
3.6133497 13.550553 -0.60988128 0.036930513 0.44472381 -0.72688931 -0.52330929 0.19203222
3.8229711 14.398197 -0.65224802 0.039290175 0.3074978 -0.84296638 -0.4414213 0.19136551
3.869694 14.398973 -0.62408757 0.022719808 0.44910449 -0.15987693 -0.8790589 0.15163383
3.8740494 14.402571 -0.62439084 0.040400796 0.31544819 -0.8290894 -0.461631 0.21332338
3.9238167 14.40883 -0.6018728 0.035941768 0.1284723 -0.98528945 -0.1126923 0.19392757
4.8215837 14.420304 -0.63039798 0.038543575 0.81402183 -0.57241696 0.098525174 0.20954889
0.0093893437 14.677098 -0.63504243 0.039755005 -0.65456551 -0.75541449 0.029880822 0.2146035
4.8168035 15.237532 -0.63124084 0.03518955 0.67515641 0.7268663 -0.12581438 0.18467094
4.1308889 15.250045 -0.65524453 0.044676062 0.22297029 0.60734063 -0.76251 0.21308865
4.1697507 15.256495 -0.64184397 0.03838836 0.23970783 0.47861969 -0.84466761 0.21397278
4.2278161 15.26193 -0.62273645 0.041275345 0.2415913 0.37475663 -0.89509273 0.20483835
4.2895637 15.261274 -0.6068638 0.037512053 0.19705488 0.50384772 -0.84101534 0.19088089
4.8168392 15.242771 -0.60985291 0.042663712 0.88433057 0.45801473 -0.090454206 0.25320321
0.010923071 15.417264 -0.63373184 0.039741263 -0.57528037 0.81726259 -0.033679657 0.21122725
3.3374481 15.569457 -0.64521706 0.040211435 0.45689139 0.49185023 -0.74117041 0.21551442
3.3826249 15.574773 -0.61501455 0.042317163 0.4342297 0.53628176 -0.72377235 0.20585723
4.2455244 15.548168 -0.65468436 0.040992495 0.20637545 0.45783526 -0.86475205 0.20957439
4.29036 15.552117 -0.64206654 0.041861903 0.17383507 0.62271643 -0.76289284 0.22279309
4.3450747 15.555128 -0.62850344 0.043403752 0.15206969 0.60015422 -0.78529596 0.2243468
4.4079714 15.555909 -0.61589658 0.039442688 0.13862367 0.56895614 -0.81059998 0.23028433
4.4661813 15.556958 -0.60587478 0.041068356 0.12189733 0.53845984 -0.83378774 0.22016111
4.5010195 15.5586 -0.60010266 0.043067325 0.026370365 0.95199668 -0.30497047 0.24078551
2.3316467 16.781885 -0.65891528 0.027942192 -0.71800596 0.69552493 -0.026696896 0.15136831
2.3499331 16.799416 -0.6579529 0.042852379 -0.51175779 0.61724824 -0.59758568 0.2257345
2.3791547 16.829319 -0.65244895 0.038704194 -0.45008329 0.56669068 -0.69013524 0.2137069
2.4058149 16.857332 -0.64704281 0.043607429 -0.5473991 0.64924002 -0.52805454 0.2381109
3.647697 16.838108 -0.6574924 0.018407023 0.090343617 0.11552852 -0.98918712 0.04844426
3.6882005 16.834013 -0.64786404 0.018163271 0.43559337 -0.15289776 -0.88706303 0.048626848
2.4353881 16.886431 -0.64026016 0.036832083 -0.48539972 0.6213001 -0.61512059 0.19973418
2.4654107 16.916922 -0.63178807 0.034368683 -0.62097508 0.71242136 -0.32687268 0.16202748
3.702677 16.888943 -0.64565253 0.019636245 0.1515598 0.067434028 -0.98614508 0.044357214
3.7356472 16.906212 -0.63670641 0.019602507 0.41067082 -0.14496383 -0.90018612 0.040391777
2.4926302 16.940357 -0.62997758 0.038325857 -0.46297675 0.62248111 -0.63100702 0.21173765
2.5306213 16.973866 -0.62448937 0.037733 -0.4847607 0.64098597 -0.59510005 0.21081255
3.7192211 16.930155 -0.64140499 0.018865682 0.05180468 0.13929695 -0.98889464 0.040399652
3.7586811 16.951338 -0.6321075 0.018356061 0.28053486 -0.046559807 -0.95871395 0.040912483
2.5584533 16.996077 -0.62164754 0.038155045 -0.46824905 0.65764976 -0.59011841 0.21735919
2.6008759 17.028229 -0.61737907 0.032650106 -0.45341611 0.64808291 -0.61188424 0.17693959
3.7657344 17.004683 -0.62922424 0.017319806 0.035581592 0.15180103 -0.98777038 0.032580364
3.8054986 17.01825 -0.62190419 0.016881788 0.2584258 -0.037743498 -0.96529347 0.039301213
2.6270854 17.050772 -0.61364669 0.036152028 -0.30577961 0.53304994 -0.78889579 0.20388524
2.6655569 17.081223 -0.60843575 0.035762168 -0.36094764 0.56464201 -0.7422238 0.1927125
3.8272424 17.057346 -0.61691153 0.020138403 0.13684285 0.060590643 -0.988738 0.044967908
3.8525052 17.069077 -0.61116266 0.017398806 0.28802982 -0.080347456 -0.95424473 0.04682824
2.6941748 17.104708 -0.60458273 0.036668874 -0.4526926 0.68329811 -0.57286388 0.18300605
2.7163322 17.11935 -0.60300666 0.035658356 -0.32406393 0.57333809 -0.75250649 0.19727091
2.7623742 17.146822 -0.6010102 0.019982753 -0.082651332 0.25812608 -0.96256936 0.15744038
3.8793375 17.130745 -0.60531425 0.017845346 0.081059545 0.10450456 -0.99121553 0.035619851
2.4303477 13.376612 -0.58360702 0.034043111 0.87379825 -0.48618904 0.0098382933 0.17913358
2.4335685 13.381697 -0.56071454 0.034468573 0.6397202 -0.76793277 0.03220601 0.17953269
3.6396182 13.551949 -0.587704 0.033577286 0.34038743 -0.86407769 -0.37081805 0.16838133
3.6851299 13.556219 -0.56123286 0.035926171 0.37487662 -0.81449223 -0.44279775 0.18594311
3.7148991 13.560175 -0.54585737 0.046704955 0.20950399 -0.97224802 -0.104125 0.19433047
3.728214 13.565946 -0.54182816 0.029160287 0.50026041 -0.30991 -0.8085143 0.19799842
3.9398925 14.41012 -0.59167844 0.040765546 0.27237654 -0.83272672 -0.48205525 0.21032207
3.993459 14.413927 -0.5669992 0.038484138 0.26251757 -0.84411365 -0.46750045 0.21870768
4.0436292 14.417245 -0.54709119 0.041948106 0.27632603 -0.78555369 -0.55366898 0.22604956
4.8207841 14.430477 -0.57036567 0.037294131 0.7427268 -0.66086853 0.1077484 0.2123552
0.0079708146 14.679586 -0.57171059 0.041475501 -0.73770708 -0.6743207 0.032859426 0.2171613
4.8189692 15.237567 -0.58942556 0.018553844 0.99998748 0.0049067121 -0.00098134251 0.080599166
4.3176346 15.260118 -0.5997985 0.047338922 0.20034632 0.61842865 -0.75987327 0.28342131
4.3500414 15.260882 -0.59289682 0.041229956 0.12675035 0.62508255 -0.77019876 0.21425937
4.4118781 15.262074 -0.58075148 0.038475532 0.13406986 0.64666843 -0.75089616 0.20144749
4.4710045 15.266666 -0.56808853 0.038296733 0.11390395 0.56486684 -0.81728292 0.21620269
4.529386 15.269037 -0.55789435 0.040778276 0.10967429 0.51833147 -0.84811789 0.21564931
4.586956 15.269609 -0.55152756 0.037839919 0.094111599 0.51432961 -0.85241312 0.19990624
4.6499624 15.269961 -0.54596269 0.0406783 0.047175251 0.58044106 -0.81293464 0.21776609
4.7033467 15.272448 -0.54175526 0.040092986 0.057773009 0.48578271 -0.8721683 0.19458179
4.8157492 15.250067 -0.57022917 0.040792961 0.91909337 0.38670456 -0.075676776 0.1771947
4.8158469 15.347716 -0.54110408 0.036091167 0.54929048 -0.14996144 -0.82206529 0.17483924
0.0082780821 15.417283 -0.56649637 0.039736524 -0.82987416 0.55773997 -0.015333666 0.21995488
4.8196735 15.391879 -0.54492587 0.039372437 0.69293338 -0.11783078 -0.71130812 0.21912122
0.014946146 15.420518 -0.57441306 0.022974823 -0.021697309 0.9991104 -0.036162216 0.13511181
4.8175831 15.454954 -0.55679834 0.039694201 0.66811341 -0.14048196 -0.73067731 0.22195014
4.8151388 15.498807 -0.56421846 0.041599993 0.69793004 -0.11375064 -0.70707452 0.21272518
3.4103634 15.577349 -0.5965842 0.039859168 0.27264002 0.79108548 -0.54758686 0.25843513
3.4495649 15.582428 -0.57033217 0.039246723 0.39657861 0.56839556 -0.72086889 0.21415396
3.4887834 15.587056 -0.54472446 0.043033887 0.37146488 0.58493316 -0.72101802 0.19131264
4.5305953 15.559946 -0.59523571 0.04263135 0.072382987 0.6944654 -0.71587604 0.2181602
4.5893288 15.560123 -0.58935469 0.03987154 0.095640212 0.46565047 -0.8797856 0.22377948
4.6454959 15.561767 -0.58312368 0.042683512 0.055857711 0.55067027 -0.83285183 0.23261093
4.7101035 15.564656 -0.57603586 0.041063819 0.040011641 0.65922546 -0.75088006 0.21539843
4.7559595 15.563522 -0.57304692 0.036737081 0.0072378279 0.69423699 -0.71971017 0.21855409
4.8101926 15.555926 -0.56815428 0.044002339 0.55936092 0.42984763 -0.70876402 0.11970383
2.7431498 17.144699 -0.59399891 0.033378281 -0.46254271 0.7100606 -0.5309127 0.19668603
2.7618051 17.156357 -0.59472847 0.041738153 -0.11518402 0.29259405 -0.94927418 0.19908758
3.9178772 17.139673 -0.59814996 0.018573761 0.31870374 -0.1300697 -0.93888748 0.032754734
2.7934103 17.181454 -0.58795142 0.034643326 -0.41763678 0.69103593 -0.5899567 0.18020962
2.8321912 17.21055 -0.58245844 0.035729557 -0.44190171 0.69457442 -0.56770521 0.19792607
3.9304924 17.180042 -0.596084 0.018796632 0.10729789 0.068602279 -0.99185735 0.032724492
3.9702995 17.202578 -0.58862841 0.015830223 0.29260743 -0.083114944 -0.95261365 0.033204284
2.8596342 17.229952 -0.57888097 0.036466543 -0.411246 0.71056008 -0.57094765 0.19378543
2.9093635 17.260015 -0.57608438 0.036662184 -0.33407933 0.62310433 -0.70720011 0.20395999
4.0027032 17.252121 -0.58290237 0.016956309 0.14093585 0.032692399 -0.98947877 0.029243477
4.0320477 17.260784 -0.57775927 0.017966293 0.27314606 -0.11947276 -0.95452482 0.030129576
2.9360409 17.283401 -0.5622797 0.02511315 -0.54272413 0.8395052 -0.026105706 0.12325893
2.9760454 17.303391 -0.56804055 0.037326869 -0.3669866 0.68244994 -0.63212574 0.19997181
3.0179253 17.329317 -0.56311959 0.035953339 -0.26513925 0.58716887 -0.76480979 0.20061333
3.0607765 17.336624 -0.56865054 0.019360434 0.0011312304 0.17081606 -0.98530233 0.094154917
4.0152326 17.286827 -0.57942307 0.01512512 0.010157802 0.15688203 -0.98756516 0.029492058
4.0490599 17.292404 -0.57492006 0.017374873 0.15015124 0.012456154 -0.98858458 0.030061508
4.089097 17.334105 -0.56927758 0.017454572 0.050794192 0.11400498 -0.99218088 0.026986351
3.0439892 17.345709 -0.55795681 0.030905286 -0.44229132 0.80420822 -0.39702326 0.17718108
3.0857368 17.368713 -0.55607116 0.036237087 -0.33296347 0.68436873 -0.64867151 0.18283421
3.1297331 17.393435 -0.553725 0.041523401 -0.29016227 0.63427031 -0.71659398 0.21863107
4.1122007 17.355211 -0.56460488 0.01658022 0.075535931 0.083984554 -0.99360001 0.022268802
4.1707973 17.3811 -0.55649245 0.016034558 0.2125833 -0.11855612 -0.96992409 0.01756485
3.1579969 17.409122 -0.55121773 0.038738966 -0.2978366 0.66913146 -0.68084979 0.20221406
3.2063208 17.436323 -0.54586339 0.038949255 -0.27510509 0.64980912 -0.70856559 0.2034419
3.2441165 17.458 -0.54116386 0.039013684 -0.29758409 0.6952793 -0.65424025 0.20335755
3.2647045 17.465801 -0.54120839 0.035992108 -0.18882944 0.52451307 -0.83019841 0.1962291
4.3004799 17.482 -0.54116082 0.015555503 0.098501906 -0.0068171015 -0.99511349 0.019437481
2.283788 12.816614 -0.48104107 0.015856251 0.5347659 -0.84429383 0.034545593 0.032885727
1.3915751 12.877941 -0.48739761 0.01527283 -0.8244316 -0.56567872 0.017892491 0.017058013
2.400044 12.929937 -0.50651604 0.015924815 0.83203435 -0.55423123 0.023379508 0.018881978
2.4273143 13.366791 -0.53373122 0.023924418 0.99977952 -0.02097439 -0.00099878048 0.093481824
2.4372768 13.386797 -0.51382601 0.03283333 0.67482299 -0.73742211 0.028680064 0.17939357
3.7111797 13.556769 -0.53846496 0.023445388 0.097407438 -0.9948684 0.027361611 0.11764167
3.7378647 13.559091 -0.5179348 0.026768273 0.10222137 -0.99474841 0.0051364624 0.10297576
3.7555039 13.566375 -0.52394503 0.036605012 0.41892263 -0.66628861 -0.61689806 0.19499087
3.808193 13.572349 -0.49562225 0.036791995 0.32935843 -0.80356932 -0.49578163 0.18922478
4.0679855 14.418305 -0.53674269 0.039841771 0.26273996 -0.79750514 -0.54309601 0.20113197
4.1092448 14.420609 -0.5217272 0.038757876 0.19922574 -0.89186376 -0.40606433 0.21150294
4.1660123 14.423645 -0.50107294 0.040639173 0.24853957 -0.73471373 -0.63120824 0.21810068
4.2177324 14.427323 -0.4855952 0.042536397 0.16454063 -0.91088778 -0.37843087 0.22631112
4.8206487 14.439994 -0.50903672 0.040424235 0.69020039 -0.71240479 0.12689729 0.20816651
0.0084967734 14.68089 -0.5052532 0.042368982 -0.48363534 -0.87510562 0.016940964 0.21615741
4.7389011 15.271861 -0.53967386 0.04218306 0.026117573 0.32567352 -0.94512153 0.21357447
4.7505484 15.272131 -0.53914547 0.039932355 0.010781518 0.6477738 -0.76175642 0.21547195
4.8145037 15.273049 -0.53383118 0.042124789 0.60425133 0.31403902 -0.7322976 0.1228232
4.8176498 15.334281 -0.53795856 0.04026131 0.724343 -0.12797759 -0.67745763 0.24696566
0.0065370169 15.417297 -0.51057547 0.037939288 -0.74246323 0.66919822 -0.030366488 0.2155574
4.8225288 15.386538 -0.53729725 0.015480151 0.99999905 0.00097751617 -0.00097751617 0.099927694
3.5204942 15.58971 -0.52669603 0.036988631 0.41824314 0.44103891 -0.79407644 0.21044542
3.5699849 15.593245 -0.49890119 0.035185285 0.35838532 0.56756896 -0.74123234 0.20153889
3.6164436 15.594442 -0.4821423 0.016042437 0.0033999309 0.98484629 -0.17339605 0.058075245
4.8161888 15.572822 -0.50485784 0.040550765 0.66351563 0.74081874 -0.10456826 0.22213848
3.528044 15.603975 -0.518152 0.022027351 0.51914626 -0.13600206 -0.84379536 0.1219
3.2156632 17.445621 -0.5374698 0.024399092 -0.46362597 0.88558131 -0.028226938 0.12299012
3.2753763 17.473774 -0.53798771 0.036832634 -0.30533412 0.72637647 -0.61575013 0.2016615
3.3262799 17.498255 -0.53276467 0.037030447 -0.32683524 0.76668948 -0.55259925 0.19287413
3.368355 17.515854 -0.53230387 0.046836019 -0.15325274 0.5017488 -0.85132939 0.23273291
4.8191595 17.497732 -0.48278183 0.035833735 0.58014745 -0.15209286 -0.80018538 0.188795
3.3999856 17.52861 -0.53064954 0.037272427 -0.25835297 0.68444937 -0.68174976 0.19338256
3.4502976 17.550629 -0.52761525 0.035737894 -0.24875167 0.68472528 -0.68503571 0.19458647
3.5000203 17.572298 -0.52438027 0.037237868 -0.20160007 0.64264119 -0.73916829 0.18397933
4.4361897 17.548401 -0.52916825 0.016669769 0.099210478 -0.037692036 -0.99435234 0.019554675
4.7889256 17.532976 -0.4970462 0.017510651 0.021878293 -0.17387494 -0.98452467 0.065058507
4.8223243 17.55405 -0.49084672 0.039062362 0.74226135 -0.11038042 -0.6609571 0.21341845
3.5248203 17.584152 -0.52074927 0.034599435 -0.21234089 0.713552 -0.66764879 0.1914918
3.5734262 17.604208 -0.51622307 0.035166267 -0.25170001 0.74946249 -0.61233413 0.17798172
3.6259582 17.62426 -0.51279467 0.036996763 -0.21681951 0.72474146 -0.65401775 0.18605877
3.6678658 17.637522 -0.51163667 0.035592735 -0.088591009 0.40975443 -0.90788376 0.19777106
4.8213816 17.60849 -0.50062293 0.039815649 0.72264087 -0.099785268 -0.68398321 0.20730141
3.6946204 17.649147 -0.50570792 0.038844455 -0.258196 0.8629033 -0.4344337 0.19302215
3.7471161 17.668324 -0.49838412 0.03485484 -0.23800768 0.81311554 -0.53122067 0.17637607
3.8111088 17.686165 -0.49989995 0.036609147 -0.16740622 0.68411863 -0.70989919 0.21147652
3.8553059 17.694914 -0.50178182 0.032047186 -0.15170534 0.641693 -0.75180817 0.17743288
4.8207922 17.6703 -0.49948248 0.040909223 0.69004816 0.11827791 -0.71403354 0.20783098
3.8867688 17.707121 -0.49885777 0.037113659 -0.17425548 0.73421389 -0.65617448 0.21525818
3.9343214 17.719589 -0.49673632 0.035169762 -0.15349464 0.70338309 -0.69404 0.18767421
3.9841242 17.734493 -0.49129704 0.037015766 -0.14223017 0.74415421 -0.65269053 0.19620828
4.0449686 17.750862 -0.48743871 0.039719563 -0.16869697 0.80605721 -0.56728578 0.2082469
4.1030178 17.751291 -0.49338311 0.018644769 0 0.17301115 -0.98491991 0.087493807
4.82026 17.733156 -0.48788238 0.040481232 0.80259031 0.098247737 -0.58838433 0.21583083
4.1085916 17.765297 -0.48502684 0.036595672 -0.1461627 0.81711102 -0.55764335 0.20077074
4.1631289 17.775908 -0.48387623 0.038346123 -0.12921 0.78566724 -0.6050055 0.21056256
4.2264395 17.78441 -0.48410603 0.041856401 -0.065292627 0.51486892 -0.85477889 0.19324586
4.288137 17.796951 -0.4810802 0.037732124 -0.083398633 0.67614847 -0.73203003 0.211987
4.3395491 17.804705 -0.48054069 0.035955537 -0.036305565 0.45735106 -0.88854486 0.19342269
4.4116282 17.81111 -0.48204839 0.035847515 -0.058457792 0.60205138 -0.7963146 0.15993179
4.4459028 17.817713 -0.48000047 0.032110348 -0.0108697 0.26208001 -0.96498501 0.18826081
4.5565958 17.8139 -0.48569638 0.028224915 -0.0011307902 0.17301105 -0.98491925 0.10328148
4.5797038 17.818682 -0.48384342 0.023787091 -0.0011465165 0.18994606 -0.98179388 0.12239325
4.6281633 17.819513 -0.4844119 0.017900513 0.0011333204 0.17339706 -0.98485136 0.11721012
4.7393198 17.81822 -0.48251465 0.016772747 -0.0011618698 0.21262197 -0.97713387 0.091067411
4.818768 17.77313 -0.48298782 0.04439323 0.76644075 0.11230884 -0.63242018 0.25236654
4.4834809 17.820177 -0.48032013 0.024634223 -0.0011353999 0.17598699 -0.98439187 0.15140383
4.5370488 17.822823 -0.48039407 0.031037416 -0.0024958588 0.27650979 -0.96100789 0.14545448
4.5866151 17.824318 -0.48119819 0.033434749 -0.011982418 0.22922429 -0.97329986 0.16197863
4.632957 17.824905 -0.48164305 0.023312556 0.00037294431 0.17923221 -0.98380673 0.12999094
2.2603781 12.808167 -0.44343352 0.016956322 0.19192393 -0.98081565 0.034145989 0.030240757
1.4009485 12.866872 -0.44891492 0.015784353 -0.70106888 -0.71286017 0.018241784 0.019716961
1.3513049 12.940596 -0.44560871 0.015008112 -0.88011968 -0.47432381 0.020155393 0.022106506
2.4062922 12.944215 -0.43818375 0.017280471 0.91017073 -0.41385344 0.017737534 0.023869621
1.3439879 12.961859 -0.45193684 0.015474793 -0.97684622 -0.21329832 0.016594026 0.019334406
2.4371793 13.389087 -0.45057216 0.034319714 0.73674721 -0.67570609 0.024996286 0.1743641
3.8710904 13.578063 -0.46197587 0.037043765 0.31854749 -0.79402453 -0.51773793 0.19339342
3.931462 13.581737 -0.43214813 0.039099403 0.33481815 -0.72255498 -0.60482323 0.21285385
3.9610295 13.586488 -0.42110819 0.025481455 0.42124009 -0.15958203 -0.8927992 0.14933787
4.246613 14.427964 -0.47595298 0.037989449 0.23885106 -0.66138697 -0.71099746 0.22406007
4.2854919 14.429754 -0.46546486 0.04002215 0.17525822 -0.81707823 -0.54924285 0.21275641
4.3441792 14.432853 -0.45071527 0.041188914 0.16588622 -0.80164272 -0.57432628 0.21319076
4.4107518 14.433797 -0.43472195 0.036767352 0.16037652 -0.74976736 -0.64197218 0.21239014
4.4667726 14.43708 -0.4263435 0.03740906 0.11286847 -0.79870498 -0.5910424 0.19984125
4.5076046 14.437918 -0.42026564 0.036895774 0.10187664 -0.82880706 -0.55018175 0.17243414
4.8211198 14.448533 -0.4548701 0.033263616 0.88605332 -0.45543301 0.086546175 0.19153292
0.0075666793 14.683909 -0.44995442 0.043641277 -0.7123248 -0.70121908 0.029752705 0.2159688
0.0053919344 15.418755 -0.45508853 0.038339261 -0.9092896 0.41606921 -0.0088839056 0.19391137
0.0064029777 15.420941 -0.43631873 0.043955352 -0.37592247 0.92627323 -0.026460795 0.22670417
3.6171939 15.598594 -0.47224796 0.043492254 0.23864245 0.78109431 -0.57701087 0.19609027
4.818706 15.583307 -0.4513028 0.04028837 0.74557531 0.65478396 -0.12399808 0.21852216
3.6428766 15.60129 -0.45850244 0.040388618 0.29181415 0.65337837 -0.69852787 0.25807607
3.686398 15.604747 -0.4370662 0.040751025 0.37274194 0.41163772 -0.83163559 0.20833077
3.7272205 15.603045 -0.423978 0.020037584 0.0073650121 0.98260945 -0.18553835 0.133451
4.8211904 17.153749 -0.42085257 0.034542359 0.78112185 -0.14542997 -0.60720587 0.34675175
4.8224263 17.188501 -0.42498919 0.040275771 0.6459955 -0.13229869 -0.75178915 0.21459435
4.8223276 17.247126 -0.43497542 0.040246841 0.78433859 -0.11325882 -0.60990602 0.20423815
4.8201742 17.310587 -0.44879794 0.039254706 0.63229841 -0.12722461 -0.76420718 0.20605414
4.8217397 17.366407 -0.45762458 0.037229363 0.78358334 -0.10470792 -0.61239964 0.21200332
4.8202682 17.427311 -0.46997014 0.037623797 0.6578151 -0.13594125 -0.74080986 0.18206148
4.8222675 17.478905 -0.47671413 0.033826061 0.87815118 -0.076132439 -0.47228634 0.21495405
4.8219924 17.749821 -0.47900504 0.015001304 0.99986333 -0.0069920518 -0.014983005 0.08274854
4.0759277 17.762266 -0.47418347 0.016437238 -0.20923392 0.97760767 -0.022460092 0.10003518
4.2545042 17.796661 -0.46996954 0.016972853 -0.16658653 0.98573166 -0.024126355 0.1137872
4.2913518 17.799068 -0.47847503 0.033841886 -0.13122688 0.90657997 -0.40111381 0.18617354
4.3449683 17.80743 -0.47743791 0.033294134 -0.12604797 0.91486239 -0.38358656 0.18937555
4.4082026 17.815001 -0.47828364 0.040234435 -0.083253071 0.76627666 -0.63709426 0.20814776
4.4541383 17.819637 -0.4789294 0.044290405 -0.053175237 0.89213002 -0.44863847 0.25822839
4.8170052 17.818026 -0.47912401 0.034193054 0.99104512 0.025756003 -0.13102001 0.20254926
4.4801898 17.822943 -0.4772763 0.038955938 -0.072932735 0.82787532 -0.55615044 0.18186559
4.5271459 17.827364 -0.47499773 0.034205962 -0.049381632 0.86233187 -0.50392979 0.19149332
4.5942373 17.829187 -0.47710347 0.039875966 -0.075756006 0.80428153 -0.58939987 0.20118667
4.6549487 17.833538 -0.47553703 0.036838014 -0.027828088 0.77633983 -0.62970001 0.19004419
4.7102876 17.836708 -0.47204468 0.035644773 0.0059000114 0.83446807 -0.55102485 0.19087598
4.7523408 17.833185 -0.47202197 0.037650514 -0.029751655 0.64465517 -0.76389432 0.19028474
4.8152032 17.831244 -0.47021112 0.045272171 0.51750028 0.70694476 -0.48210233 0.11233713
2.2874224 12.821715 -0.40050516 0.015230809 0.54591393 -0.83743387 0.026126796 0.035151914
1.4094552 12.861506 -0.39658204 0.015727578 -0.58636039 -0.80973351 0.022651298 0.016675847
2.3463485 12.861334 -0.37306151 0.017659277 0.57135206 -0.82036811 0.023518104 0.022021644
1.3515646 12.942322 -0.39016002 0.01612653 -0.86051315 -0.50928313 0.012158003 0.015399876
2.4046798 12.942152 -0.3843182 0.015737915 0.86971557 -0.49333176 0.014786492 0.01876788
2.434211 13.389666 -0.38979203 0.036144808 0.74392277 -0.66791737 0.021571776 0.18639185
3.9531446 13.580257 -0.41569185 0.027759854 0.067060597 -0.99739403 0.026611401 0.1353997
3.9914815 13.585512 -0.40461376 0.035394359 0.28767416 -0.78780895 -0.54461056 0.19962379
4.0484591 13.589749 -0.38100845 0.036100496 0.26890191 -0.79521406 -0.54343951 0.19864175
4.0937066 13.594844 -0.36731017 0.04115849 0.25526035 -0.73982465 -0.62249625 0.22297403
4.8221173 14.330254 -0.3606942 0.037871271 0.9858411 -0.019690869 -0.16652192 0.2228678
4.8211679 14.373053 -0.36966544 0.040197771 0.79444313 -0.10177363 -0.59875053 0.21588877
4.5326328 14.437858 -0.41585007 0.041332912 0.09417399 -0.82309419 -0.5600422 0.23575534
4.5898499 14.439384 -0.40956447 0.040117748 0.090875611 -0.75091785 -0.65411317 0.20755106
4.6504369 14.44048 -0.40468079 0.041524518 0.040497933 -0.89615566 -0.44188789 0.19967857
4.7090697 14.441133 -0.3994928 0.040336307 0.078044832 -0.74154186 -0.66635185 0.22397022
4.7563076 14.440558 -0.3969222 0.034163039 0.007438703 -0.96671247 -0.25575712 0.16483074
4.8166056 14.440732 -0.39468789 0.041674625 0.77969855 -0.50189435 -0.37439579 0.12631984
0.0064842924 14.688136 -0.39207226 0.039923321 -0.79610747 -0.60501236 0.013149089 0.21363637
0.0013854016 14.705138 -0.38641849 0.01567441 -0.99999905 0.00097751617 0.00097751617 0.082728475
0.0042920257 15.417283 -0.40302473 0.01869422 -0.99999523 0.0029440506 0.0009813502 0.15430129
0.0096424157 15.424515 -0.38776654 0.037835278 -0.6500597 0.75982881 -0.0090850163 0.20616004
4.8184147 15.594118 -0.39438564 0.035751808 0.70201981 0.70097166 -0.12572588 0.19530787
3.7513504 15.607152 -0.40881658 0.041772444 0.21338797 0.73122954 -0.64789575 0.22761418
3.8123076 15.612546 -0.38065472 0.041513324 0.29666725 0.58215517 -0.75702304 0.22731321
3.8534944 15.615285 -0.36390176 0.040747564 0.28687549 0.54851824 -0.78538537 0.22349407
4.8168135 15.600831 -0.36779475 0.042762272 0.8133145 0.5683952 -0.12428372 0.2795926
4.814568 16.793461 -0.36145657 0.036433138 0.4271934 -0.15237211 -0.89122862 0.21965548
4.8163834 16.832006 -0.36748907 0.036694996 0.59121025 -0.16100851 -0.79028261 0.20137282
4.8187599 16.888977 -0.37532991 0.040150501 0.74948496 -0.11307277 -0.6522935 0.21548223
4.8191628 16.948658 -0.38440856 0.040255245 0.63803691 -0.12970121 -0.75900364 0.21763873
4.8194709 17.009398 -0.39576566 0.039429363 0.73602158 -0.12015282 -0.66620994 0.20973326
4.819315 17.068378 -0.40678638 0.040272694 0.70215487 -0.1155396 -0.70258743 0.21502981
4.8200612 17.127172 -0.41605434 0.036941562 0.68317449 -0.13377495 -0.71789753 0.2118663
4.8243294 17.178928 -0.41942278 0.026485268 0.99997586 -0.0009842288 -0.0068895989 0.16730091
4.820116 17.835611 -0.39002228 0.038898241 0.83032185 0.55686861 -0.021513825 0.21092397
1.398563 12.874618 -0.33723101 0.015511871 -0.74749899 -0.66396016 0.020055555 0.021878192
2.3583333 12.874331 -0.32626176 0.01639024 0.80056691 -0.599051 0.015183204 0.01874255
1.3501182 12.947536 -0.32640868 0.015623786 -0.90453279 -0.42607483 0.016755687 0.017132126
2.4336233 13.390849 -0.33099514 0.036165062 0.74911326 -0.66227037 0.015071128 0.18350628
4.1241026 13.594563 -0.35408843 0.04072937 0.24697021 -0.80112809 -0.54516017 0.19029085
4.1706243 13.599022 -0.34036022 0.034320585 0.24282101 -0.73887426 -0.62857205 0.1969713
4.2319069 13.604212 -0.32432035 0.035647213 0.22953437 -0.69598359 -0.68038285 0.18677123
4.2897105 13.606913 -0.30857465 0.035839796 0.21486999 -0.65684241 -0.72276473 0.20093466
4.8198662 14.015498 -0.30382109 0.041040905 0.7345106 -0.11518307 -0.66875041 0.22401714
4.8201637 14.069817 -0.31388384 0.041490152 0.71003604 -0.1288643 -0.69227368 0.20995557
4.8211675 14.130585 -0.32474345 0.041309003 0.77395332 -0.10112457 -0.62511611 0.22379236
4.8209581 14.185637 -0.33484587 0.038932931 0.71872109 -0.11551448 -0.68563569 0.22131202
4.8203678 14.247062 -0.34624416 0.041049901 0.70436633 -0.1244875 -0.69883543 0.20892286
4.8213844 14.302312 -0.35552433 0.037640125 0.71965891 -0.12325428 -0.68330044 0.20878786
4.8235569 14.352132 -0.35955179 0.027916491 0.9999401 -0.0009910895 -0.010901185 0.12441608
0.007589018 14.688479 -0.32870042 0.042245835 -0.69150239 -0.72230381 0.010080589 0.21823245
0.0084863771 15.425756 -0.32671443 0.038538076 -0.6817469 0.73103571 -0.028424406 0.20656593
4.8197312 15.598949 -0.35340768 0.031899028 0.99976575 0.021058295 -0.0050138687 0.14015085
3.8779917 15.617425 -0.35383308 0.044605993 0.17844447 0.80052906 -0.57211083 0.21312556
3.9285367 15.622183 -0.33423242 0.040051214 0.23899393 0.61180931 -0.75403655 0.22174971
3.9947834 15.627365 -0.3107641 0.040407013 0.24449229 0.48654184 -0.83874935 0.21963133
4.0264606 15.628757 -0.3008928 0.040417571 0.23532756 0.48949358 -0.8396529 0.25764641
4.8180375 15.605355 -0.33375898 0.040955313 0.51647973 0.8425802 -0.1526667 0.20833445
4.8186212 16.48196 -0.30341902 0.040596154 0.70684642 -0.12067418 -0.69699776 0.2436246
4.8157616 16.535315 -0.31482339 0.038847674 0.55672675 -0.14392559 -0.81813246 0.20675427
4.8152342 16.592775 -0.32484132 0.037664264 0.63988179 -0.13751289 -0.75606984 0.20589581
4.8186684 16.654045 -0.33329749 0.040846054 0.6518079 -0.12984931 -0.74718511 0.20310839
4.8192225 16.706371 -0.34318581 0.03821129 0.71581215 -0.12669028 -0.6867041 0.22098081
4.8175349 16.764633 -0.35484794 0.040366869 0.69795632 -0.10175229 -0.70887476 0.19826187
4.8205085 17.838566 -0.3280232 0.040450256 0.63443291 0.77286488 -0.013221776 0.23195069
2.270437 12.81521 -0.28448638 0.015654583 0.26450494 -0.96416175 0.020721594 0.021179998
2.2828565 12.821882 -0.28489476 0.017197808 0.54923517 -0.83547813 0.017805433 0.021181339
2.4329967 13.391504 -0.26632178 0.032958578 0.77999467 -0.62567711 0.011677933 0.17261159
4.3501644 13.606707 -0.29026946 0.037251092 0.1599299 -0.82140303 -0.54746634 0.18102138
4.4121146 13.608384 -0.27679372 0.03795062 0.15159458 -0.79060221 -0.59326828 0.19911602
4.4713211 13.610208 -0.26555905 0.035982877 0.12481604 -0.77049786 -0.62510312 0.19113946
4.5292907 13.613225 -0.25890952 0.039861526 0.11197195 -0.77921379 -0.61667514 0.19525887
4.5965533 13.613944 -0.24853544 0.040028617 0.081711315 -0.7738685 -0.62805319 0.2156014
4.6482854 13.615788 -0.24480778 0.040304177 0.051431276 -0.74462032 -0.66550392 0.2034068
4.7023544 13.618327 -0.24209964 0.04093786 0.049049966 -0.86987734 -0.49082333 0.19888252
4.5319347 13.626955 -0.2671622 0.021558857 0.13836411 -0.1734107 -0.97508156 0.11777091
4.6077819 13.627079 -0.2556445 0.017081756 0.11353409 -0.17153512 -0.97861421 0.11228657
4.6741605 13.625877 -0.24886477 0.015716959 0.068181723 -0.17583705 -0.98205531 0.10647316
4.7134905 13.621727 -0.24275716 0.025961554 0.059479393 -0.17343915 -0.98304683 0.11144628
4.8131862 13.667686 -0.24362873 0.039374787 0.8776567 -0.099550001 -0.46883732 0.20050734
4.8164525 13.709499 -0.25255132 0.037590247 0.7508952 -0.11530794 -0.65027714 0.21798569
4.8172135 13.767343 -0.26475835 0.041643165 0.60117686 -0.13765976 -0.78716969 0.2030226
4.8181977 13.828502 -0.27544552 0.042176206 0.52009046 -0.1481216 -0.84116936 0.23234937
4.8192158 13.891425 -0.2858516 0.044365235 0.67898917 -0.13117243 -0.72233474 0.20702991
4.8194046 13.949656 -0.2941165 0.040231399 0.72608298 -0.11360789 -0.67815679 0.22656232
4.8208427 13.987237 -0.29577577 0.024876112 0.89643264 -0.078116961 -0.43624106 0.1322825
0.0091561163 14.688622 -0.26867208 0.042088188 -0.55958182 -0.82871985 0.0095766485 0.21657348
0.0079788938 15.425679 -0.26856202 0.042115789 -0.653283 0.75710356 -0.0039224196 0.22540371
4.0589466 15.629374 -0.29188105 0.037809223 0.20077087 0.66343951 -0.72079051 0.20107023
4.1116848 15.632383 -0.27447927 0.039180797 0.196999 0.5756827 -0.79358739 0.21137948
4.1720781 15.636182 -0.25680473 0.040372487 0.16532125 0.65403467 -0.73817849 0.22388671
4.2224441 15.639309 -0.24431282 0.03638792 0.18811823 0.39126879 -0.9008441 0.21034798
4.8168325 15.615942 -0.27621195 0.040976454 0.73772103 0.66587269 -0.11127021 0.2092724
4.8177872 16.130301 -0.24384315 0.034986407 0.55098343 -0.15976842 -0.81907946 0.2432607
4.8198924 16.173969 -0.24982658 0.041043565 0.68638349 -0.12062247 -0.7171666 0.21057899
4.8217821 16.231396 -0.25671867 0.03879723 0.74438912 -0.12000528 -0.65687424 0.21015486
4.8212566 16.294638 -0.26689085 0.038590077 0.8183766 -0.10919293 -0.56421322 0.20840329
4.8202186 16.349594 -0.27913082 0.039536498 0.65190941 -0.12963329 -0.74713403 0.22739066
4.8207259 16.410229 -0.28928688 0.040885314 0.76019645 -0.11532176 -0.63937634 0.2180623
4.8199668 16.451416 -0.29733199 0.039632715 0.59780097 -0.13596754 -0.79002959 0.20440598
4.8192616 17.841204 -0.26719519 0.040795967 0.71116465 0.70295638 -0.009868728 0.22459178
2.4262376 13.370403 -0.1809708 0.015423661 0.99879986 -0.048445392 0.0072152689 0.058083624
2.434721 13.393871 -0.21180105 0.036517899 0.71258152 -0.70131016 0.019789042 0.18910211
4.5370159 13.605731 -0.23815426 0.022786204 0.025117395 -0.99967188 0.0050234795 0.11385303
4.5949941 13.608852 -0.23444788 0.022261472 0.018363342 -0.99982685 -0.0030182938 0.1145632
4.6510253 13.611632 -0.23357166 0.016859435 0.013036498 -0.99980187 0.015042198 0.084182665
4.7192912 13.616244 -0.23641889 0.032277234 0.041960634 -0.87304634 -0.48582858 0.20365812
4.7454491 13.619264 -0.23624775 0.03602729 0.023837218 -0.95402902 -0.29876503 0.18699367
4.8111067 13.618343 -0.21953864 0.047360677 0.99807322 -0.057966214 0.022132605 0.16700813
4.7667284 13.622412 -0.23769985 0.031555828 0.026275026 -0.46135896 -0.88682437 0.17243938
4.8102489 13.625031 -0.23097588 0.044478822 0.45823666 -0.72854877 -0.50915223 0.11324148
0.0087352404 14.68984 -0.20951229 0.041737851 -0.68090475 -0.73230892 0.0096147927 0.22541088
0.0070429724 15.423167 -0.20952234 0.038900521 -0.86672896 0.49872726 -0.0072231428 0.20082721
4.2470174 15.640244 -0.2381077 0.037200432 0.10867601 0.83713794 -0.53608739 0.19915058
4.2933803 15.640081 -0.22916095 0.039138969 0.14713752 0.57661521 -0.80365759 0.21384341
4.349515 15.642633 -0.21675196 0.041130282 0.12863916 0.64212859 -0.75572664 0.20916261
4.4059339 15.64492 -0.20633662 0.041858558 0.12943763 0.50071812 -0.855878 0.22998603
4.4695563 15.646975 -0.19648725 0.040016823 0.09672045 0.52089411 -0.84812415 0.22276658
4.5237355 15.648173 -0.19014803 0.041508246 0.082685269 0.58944756 -0.80356383 0.22656333
4.5773964 15.651814 -0.18242325 0.042245276 0.067360029 0.61235285 -0.78770977 0.21857356
4.8161368 15.626309 -0.21113822 0.038944367 0.85184842 0.51652497 -0.086926907 0.18920857
4.8179784 15.776487 -0.18026388 0.03227983 0.019576294 -0.17388296 -0.98457175 0.17673579
4.8187981 15.810603 -0.18632507 0.042207789 0.64222938 -0.13384834 -0.75473577 0.21677704
4.819026 15.86843 -0.19572712 0.0377273 0.72946614 -0.10634374 -0.67569971 0.21264346
4.8188586 15.930228 -0.20648783 0.041934691 0.68823111 -0.13176027 -0.71342635 0.21101168
4.8173733 15.990189 -0.21767737 0.037639659 0.57804257 -0.13814881 -0.80422729 0.21111226
4.8193851 16.051517 -0.22753543 0.0403817 0.7349993 -0.12211528 -0.66698122 0.21014802
4.8194284 16.095127 -0.23575775 0.040846124 0.76359242 -0.10190114 -0.6376071 0.20566718
4.8190799 17.841412 -0.20987076 0.044067409 0.56141031 0.82748896 -0.0089784097 0.22343522
2.4350147 13.39467 -0.14662685 0.03760346 0.7427299 -0.66958582 0.0026785824 0.19034156
4.81778 13.619191 -0.1409345 0.035750434 0.43428412 -0.90077394 -0.0018978104 0.22141558
4.818748 13.620874 -0.15764481 0.03799798 0.89764738 -0.44039541 0.016763177 0.2214089
0.0090744756 14.69101 -0.150437 0.041831046 -0.65529603 -0.75527483 0.01212447 0.22209947
0.0084979013 15.42482 -0.15051799 0.039815832 -0.61225021 0.79058272 -0.011341971 0.22877547
4.6097665 15.653703 -0.17905295 0.03407304 0.079077043 0.066400148 -0.99465466 0.21945685
4.6481781 15.652447 -0.17676459 0.041539103 0.062867217 0.48117238 -0.87436885 0.22686955
4.7080283 15.650535 -0.17431392 0.043682739 0.02580454 0.61622173 -0.78714985 0.22214705
4.7543149 15.648487 -0.17359605 0.039599482 0.0094954614 0.65933573 -0.75178862 0.19932723
4.8164225 15.642316 -0.1706858 0.041110884 0.70363832 0.45295569 -0.54747075 0.12095298
4.8180628 15.688654 -0.16371824 0.033996079 0.91760856 -0.071214333 -0.39105397 0.17546847
4.8195014 15.749856 -0.17419054 0.039957982 0.67983204 -0.13781357 -0.72030258 0.22062729
4.8209748 15.786039 -0.17790392 0.022465425 0.99999905 0.00097751617 0.00097751617 0.12301277
4.819931 17.840252 -0.15045699 0.040367 0.6974563 0.71660554 -0.0055803526 0.20752795
2.3455896 12.869497 -0.080624357 0.015782699 0.59767729 -0.80172616 0.0041248272 0.016839601
2.4257946 13.358296 -0.083220251 0.015012091 0.99999905 -0.00097751617 -0.00097751617 0.044724658
2.4334447 13.393955 -0.091822714 0.037955411 0.80671614 -0.59090948 0.0059191063 0.19102596
4.8172669 13.618834 -0.11030258 0.038984485 0.67707187 -0.73572236 -0.016922276 0.20901038
4.8174834 13.622627 -0.086694956 0.039486907 0.62479794 -0.78058863 0.017576873 0.20015977
0.0096010892 14.694904 -0.09060014 0.040900495 -0.7402932 -0.67222309 0.0090590082 0.22236383
0.0089833029 15.41774 -0.073670469 0.03667511 -0.88269514 0.46994382 0.0014347654 0.17789425
0.0087010236 15.42232 -0.10144144 0.043430667 -0.76051706 0.64931589 0.0016234046 0.21495426
4.8184962 17.838257 -0.096132182 0.040438488 0.79098523 0.6116398 0.015460473 0.22986396
1.4794364 12.826428 -0.013305719 0.039512273 -0.34134516 -0.71786457 0.60675687 0.16503376
1.5282561 12.815409 -0.0090216072 0.039751604 -0.1488765 -0.73389995 0.66274172 0.21574381
1.5895495 12.806623 -0.0089944256 0.040125765 -0.058393758 -0.71873778 0.69282478 0.20470981
1.6526632 12.807665 -0.0082347654 0.039799787 0.0049388902 -0.64632577 0.76304567 0.22820994
1.7085304 12.806104 -0.0099844318 0.039782017 0.0022602505 -0.77239829 0.63513446 0.2196352
1.7696413 12.806122 -0.0093432562 0.042492438 -0.00024670293 -0.79158813 0.61105508 0.21594104
1.8266305 12.805684 -0.0094111543 0.041768145 -0.00086162647 -0.76639479 0.64236927 0.22722611
1.8875523 12.806878 -0.0096655739 0.038102228 -0.0030367137 -0.72209471 0.6917876 0.20374574
1.9444556 12.807659 -0.0093790209 0.040390491 -0.0029469547 -0.8044247 0.59404731 0.20915139
2.0096974 12.807734 -0.0098399986 0.038398623 0.0074333614 -0.68744844 0.72619516 0.21130371
2.0678349 12.807687 -0.0092719616 0.039375212 -0.0011549193 -0.7430346 0.66925198 0.21413128
2.1284883 12.80743 -0.007146759 0.040019982 -0.006192117 -0.67148674 0.7409907 0.22489743
2.1904774 12.809529 -0.0083252564 0.041581161 0.11338013 -0.75823092 0.64205199 0.2081444
2.2551587 12.822828 -0.0085025122 0.04154839 0.21740533 -0.68520498 0.69514668 0.20583445
2.2873929 12.835872 -0.0079587726 0.045779768 0.40491745 -0.63550872 0.65739679 0.21322469
1.410785 12.87509 -0.0093082879 0.039621539 -0.47888917 -0.53401637 0.6967724 0.19168879
1.4486237 12.844735 -0.010776063 0.035451952 -0.45383391 -0.65727097 0.60168898 0.23545669
2.318212 12.854597 -0.0086367829 0.039673936 0.34634477 -0.53110886 0.77328432 0.21671773
2.3538473 12.883427 -0.0093988711 0.042136047 0.66379297 -0.58772606 0.46255484 0.19160123
1.3628672 12.93715 -0.010982607 0.038704123 -0.73951477 -0.42085764 0.52535391 0.18915212
1.3834206 12.903613 -0.010662049 0.0383812 -0.7574392 -0.51076537 0.4066996 0.22465463
2.3861892 12.926403 -0.0092127323 0.040662672 0.66828203 -0.43481001 0.60360539 0.22078952
2.4023359 12.952874 -0.0092149107 0.034440897 0.4350799 -0.19693252 0.87859154 0.14446478
1.3464677 12.985817 -0.008159589 0.041648574 -0.66340083 -0.13565685 0.73586452 0.22321554
2.4123304 12.989813 -0.0078245085 0.042486649 0.7469877 -0.16767022 0.6433475 0.22248594
1.3359497 13.049371 -0.0095517728 0.037763443 -0.74884403 -0.067495391 0.65930039 0.19705555
2.4202566 13.049307 -0.0064755087 0.041589662 0.71467412 -0.060741305 0.69681519 0.21503368
1.3354495 13.113924 -0.0090784924 0.038107786 -0.73474801 -0.0026495701 0.67833501 0.20470555
2.4216077 13.11071 -0.0072124107 0.04002393 0.62301862 -0.012726919 0.78210342 0.22966762
1.3360895 13.170621 -0.0079251276 0.037695542 -0.71991813 -0.0092536043 0.69399726 0.19759111
2.4220233 13.162539 -0.0082348417 0.043673087 0.72432578 0.0036829421 0.68944806 0.22230628
1.3389723 13.227888 -0.0053833993 0.038457043 -0.60041898 0.0032501889 0.79967904 0.22346658
2.4209473 13.226582 -0.0083208028 0.038554765 0.77408969 0.0083976751 0.63302016 0.21650788
1.3393613 13.284675 -0.0054638986 0.037004892 -0.67116386 0.0022184073 0.74130571 0.2149713
2.4204168 13.28508 -0.0090892063 0.038038507 0.74721676 -0.0068739345 0.66454494 0.20336579
1.3372382 13.353221 -0.0079341363 0.03662511 -0.66154754 -0.0052810377 0.74988461 0.19455287
2.4185042 13.350551 -0.0088687968 0.039334428 0.62103748 -0.0095084133 0.78372329 0.19734336
1.3351156 13.407065 -0.0089705521 0.043377321 -0.78826743 0.0025700289 0.6153276 0.23191376
2.4297802 13.395834 -0.015014981 0.039251387 0.490143 -0.56230652 0.66601145 0.13473658
2.5015919 13.418232 -0.010042366 0.042697955 0.13309774 -0.68670988 0.714643 0.20334344
2.552829 13.426578 -0.010347527 0.036179796 0.12302694 -0.77342814 0.62183064 0.20752114
2.6040032 13.436109 -0.0090850526 0.040728111 0.10999887 -0.68813854 0.71719283 0.20579158
1.3352979 13.4707 -0.0084805321 0.040740266 -0.67679799 -0.0068073007 0.73613721 0.22997972
2.6294103 13.442381 -0.0075429194 0.040351607 0.07955157 -0.54181898 0.83672196 0.18851309
2.6752357 13.448311 -0.0085744923 0.040241282 0.10757164 -0.67546695 0.72950172 0.23166279
2.7333357 13.457288 -0.0086692823 0.040215444 0.11968545 -0.75253671 0.64758307 0.19922122
2.7890482 13.465421 -0.0089785429 0.036714185 0.10008407 -0.65640599 0.74773961 0.21844466
2.8520904 13.476007 -0.0074435119 0.041850984 0.11527624 -0.78688145 0.60624152 0.215509
2.908304 13.487145 -0.0057554208 0.038459968 0.082558885 -0.57711023 0.81248254 0.21845725
2.9755099 13.496726 -0.0052968124 0.040893998 0.097248688 -0.68540162 0.72164214 0.21673211
3.0222602 13.498095 -0.0095597776 0.035525862 0.11551997 -0.9412908 0.31721705 0.20871055
1.3354751 13.532557 -0.0083427485 0.041679293 -0.73890895 0.0030236293 0.6737985 0.21811278
2.9696145 13.50572 -0.002118394 0.019004155 0.00097751617 -0.00097751617 0.99999905 0.090974383
3.0378008 13.501851 -0.0075817639 0.038785726 0.07868354 -0.41148514 0.9080137 0.18880616
3.0880706 13.507075 -0.009642778 0.03608989 0.098475263 -0.76202035 0.64002162 0.19564359
3.1526833 13.514822 -0.0075775222 0.040646996 0.075502791 -0.70784134 0.70232475 0.22946745
