ply
format ascii 1.0
comment PCL generated
element vertex 527
property float x
property float y
property float z
property float intensity
property float nx
property float ny
property float nz
property float curvature
element camera 0
property float view_px
property float view_py
property float view_pz
property float x_axisx
property float x_axisy
property float x_axisz
property float y_axisx
property float y_axisy
property float y_axisz
property float z_axisx
property float z_axisy
property float z_axisz
property float focal
property float scalex
property float scaley
property float centerx
property float centery
property int viewportx
property int viewporty
property float k1
property float k2
end_header
4.8196659 13.971605 -0.29766569 0.048330866 0.996979 -0.0377235 -0.067902297 0.20474666
4.8202119 13.964842 -0.29559579 0.038703628 0.99991697 -0.000990998 -0.012883 0.15336984
4.8203921 14.088326 -0.31777826 0.048136327 0.99999899 -0.00097943097 -0.00097943097 0.21811748
4.8201289 13.994549 -0.30007419 0.040885247 0.99979299 -0.011053 -0.0170819 0.19342466
4.8208904 14.008658 -0.30032384 0.02613584 0.99999899 -0.00097751606 0.00097751606 0.13603123
4.8205938 13.991781 -0.29835755 0.026056206 0.99999899 -0.00097751606 -0.00097751606 0.16132541
4.8204212 14.007675 -0.3015219 0.026131332 0.99999899 -0.00097751606 0.00097751606 0.15178096
4.821301 13.974255 -0.29365864 0.022224396 0.99999899 -0.00097751606 -0.00097751606 0.12563726
4.8228126 13.985554 -0.2897329 0.015201042 0.99999899 -0.00097751606 -0.00097751606 0.066003375
4.8199363 13.995662 -0.30084106 0.049497638 0.99857998 -0.00724359 -0.052774701 0.21415536
4.8202128 14.024741 -0.30464217 0.040320799 0.99987602 -0.0049745101 -0.0149235 0.18052821
4.8190031 13.878505 -0.2840265 0.053631905 0.99397802 -0.031992599 -0.104803 0.21045516
4.8187647 13.872427 -0.28315979 0.05438292 0.99336898 -0.039021201 -0.108145 0.21377465
4.8189049 13.886382 -0.28568253 0.053907759 0.98568302 -0.033510901 -0.165244 0.23361076
4.8206716 14.120757 -0.32376683 0.042168234 0.797171 -0.070128098 -0.59966701 0.40920109
4.8207211 14.110191 -0.32158121 0.052783571 0.99999499 -0.00097942702 -0.0029382801 0.21655421
4.8204865 14.105854 -0.32103813 0.052745502 0.99999499 -0.00097942702 -0.0029382801 0.22175269
4.8183551 14.252048 -0.34836143 0.036452685 0.026601899 -0.174647 -0.984272 0.16354078
4.8183045 14.254839 -0.34885946 0.036450565 0.026662599 -0.175046 -0.98419899 0.16936383
4.8179102 14.222156 -0.34352025 0.031157007 0.0242447 -0.172022 -0.98479497 0.15919635
4.8197708 14.17398 -0.33379939 0.033436541 0.036325298 -0.17928299 -0.983127 0.18535271
4.8195543 14.176058 -0.33429572 0.033396751 0.0362418 -0.17887101 -0.98320502 0.18532759
4.8206348 14.183512 -0.335049 0.039399978 0.0386655 -0.179267 -0.98303998 0.18936688
4.8213849 14.14005 -0.32649797 0.044555418 0.045651499 -0.16972999 -0.984433 0.20984924
4.820735 14.123906 -0.32396254 0.034182202 0.0266126 -0.17240299 -0.984667 0.17721479
4.8210225 14.158519 -0.33013421 0.033217423 0.043480098 -0.17509601 -0.98359102 0.1898019
4.8211989 14.156288 -0.3296102 0.033457853 0.045825601 -0.17507701 -0.98348802 0.19351272
4.8192315 14.301135 -0.35691071 0.019981252 0.0242902 -0.174658 -0.98433 0.12332221
4.8170056 14.298029 -0.35733598 0.018281762 0.0242902 -0.174658 -0.98433 0.082091868
4.8210564 14.279989 -0.35204947 0.036458828 0.026601899 -0.174647 -0.984272 0.19226293
4.822166 14.312628 -0.35718349 0.04674973 0.19326399 -0.169917 -0.96632099 0.24134883
4.8215404 14.319635 -0.35902941 0.038817275 0.080898799 -0.172665 -0.98165298 0.19793828
4.8214455 14.304793 -0.35627648 0.035280261 0.033778802 -0.173553 -0.984245 0.18560089
4.8228092 14.341266 -0.36154115 0.051925685 0.38925099 -0.179544 -0.90346402 0.28486156
4.8216472 14.364415 -0.36723995 0.051495653 0.036173601 -0.176201 -0.98368901 0.19010119
4.8224239 14.340523 -0.36190259 0.037136946 0.145886 -0.17886899 -0.97299701 0.22581603
4.820065 14.217604 -0.34151831 0.045456305 0.068078101 -0.170792 -0.982952 0.20286946
4.8198571 14.25104 -0.34742624 0.046803478 0.085897602 -0.173005 -0.98116797 0.2061373
4.8199081 14.249559 -0.3471306 0.046738897 0.088719703 -0.173793 -0.98077798 0.20707205
4.8213816 14.172949 -0.33247966 0.054324314 0.137068 -0.17730799 -0.97456402 0.22158185
4.8212242 14.17423 -0.33281562 0.038928851 0.0711696 -0.182146 -0.98069298 0.19902758
4.8205886 14.221445 -0.34181371 0.043484498 0.15321501 -0.16841 -0.973737 0.23440474
4.8202758 14.202833 -0.33915865 0.039050102 0.35895601 -0.161882 -0.919209 0.28816116
4.8186336 14.209836 -0.34166467 0.034195364 0.35895601 -0.161882 -0.919209 0.28394482
4.8216414 14.137734 -0.32594496 0.054373551 0.052636102 -0.15790799 -0.98605001 0.21500099
1.3144521 13.670457 -2.4016225 0.046985868 -0.43522501 -0.212413 -0.874906 0.32848313
4.8212147 14.276901 -0.35137668 0.035982456 0.041039001 -0.17470901 -0.98376399 0.18867096
4.8214149 14.283452 -0.35238287 0.047633953 0.045931701 -0.175483 -0.98341 0.20339513
4.8210745 14.246704 -0.34591705 0.052265145 0.205272 -0.171278 -0.96360099 0.24570391
4.8206463 14.254716 -0.34761247 0.05189785 0.156708 -0.174545 -0.97209901 0.23046598
4.8216395 14.290437 -0.35373673 0.049584694 0.35879099 -0.16462199 -0.918787 0.30835202
4.8217793 14.283636 -0.35210842 0.050208841 0.29516399 -0.168861 -0.94040602 0.28502208
4.8219109 14.300295 -0.35520375 0.046651162 0.19374999 -0.170344 -0.96614897 0.25359687
4.8216324 14.16011 -0.32995376 0.052337825 0.193664 -0.172867 -0.96571797 0.24697165
4.8209395 14.180665 -0.33445948 0.047102906 0.47379199 -0.128169 -0.87125999 0.32068211
4.8216829 14.150743 -0.32816571 0.044336844 0.523853 -0.136466 -0.84080601 0.34940532
4.8202395 14.239254 -0.34566367 0.044763222 0.98039699 0.00345616 -0.197001 0.2510657
4.8216786 14.327364 -0.36071393 0.045441099 0.93867099 -0.048037101 -0.34145299 0.27569112
4.8221731 14.316217 -0.3580457 0.044151876 0.631998 -0.132973 -0.76347703 0.34437233
4.8223834 14.340394 -0.36231109 0.049447138 0.93233502 -0.064800598 -0.35574201 0.27835962
4.820713 14.282009 -0.35312748 0.046165626 0.87892002 -0.103319 -0.465644 0.34556016
4.8212061 14.193658 -0.33643553 0.040727165 0.84028602 -0.066375501 -0.53806502 0.32341278
4.8214393 14.181925 -0.33399189 0.034333054 0.96385098 -0.030774301 -0.26465899 0.26053235
4.8214078 14.179912 -0.33372581 0.034152903 0.95422202 -0.033855502 -0.297176 0.2750752
4.8201733 14.221698 -0.34271654 0.040873829 0.79171902 -0.106831 -0.60147202 0.34478265
4.8205681 14.202564 -0.33869204 0.04538475 0.99304098 -0.0120435 -0.11715 0.21570277
4.8203473 14.258863 -0.34894899 0.041293163 0.99581498 -0.031492501 -0.085790001 0.22693764
4.8201079 14.251646 -0.34792078 0.045545388 0.99378598 -0.0298468 -0.107227 0.22681868
4.8202906 14.266238 -0.35026553 0.041526519 0.99664497 -0.0290913 -0.076499201 0.2244859
4.8210826 14.264358 -0.3488068 0.042780451 0.99927098 -0.0132963 -0.035797801 0.20637877
4.8209786 14.119097 -0.32301405 0.040809598 0.99999499 -0.00098134996 -0.0029440499 0.20557934
4.8212695 14.123131 -0.3233237 0.040802915 0.99998701 -0.00098134205 -0.0049067098 0.19791369
4.8210363 14.125738 -0.32453471 0.049903441 0.969042 -0.025405601 -0.24558701 0.29570195
4.8209639 14.135895 -0.32680497 0.04861166 0.92908198 0.0038129201 -0.369854 0.32661337
4.8212147 14.159344 -0.33045569 0.039891239 0.99007899 -0.044433899 -0.133302 0.2408914
4.8213153 14.156733 -0.32964513 0.041116212 0.99872601 -0.0134543 -0.048642602 0.21001533
4.8211832 14.174394 -0.33305776 0.038834326 0.98791701 -0.021600001 -0.153474 0.23178741
4.8220816 14.296251 -0.3530595 0.029194022 0.99999899 -0.00097751606 -0.00097751606 0.13994057
4.8210087 14.283305 -0.3527129 0.035215639 0.99963897 -0.0090968199 -0.025268899 0.20191213
4.8206458 14.295667 -0.35559237 0.053123344 0.99781102 -0.0221736 -0.062297199 0.22173192
4.8207731 14.227817 -0.34258789 0.047526501 0.998999 -0.0071870401 -0.044149 0.17982595
4.8217015 14.247526 -0.34412792 0.029893167 0.99997598 -0.00098519796 -0.0068963799 0.13036364
4.8234496 14.250805 -0.33999041 0.019191666 0.99998701 -0.00098134205 -0.0049067098 0.087840565
4.8218684 14.116498 -0.31966543 0.016787959 0.99999899 -0.00097751606 -0.00097751606 0.12653197
4.8234816 14.314747 -0.35331473 0.016518533 0.99999899 0.00097751606 0.00097751606 0.11789262
4.8215737 14.303027 -0.35569239 0.034913391 0.99934399 -0.0132701 -0.0336858 0.19211043
4.8232737 14.3179 -0.35457641 0.016528782 0.99999899 0.00097751606 0.00097751606 0.11535975
4.8216515 14.323278 -0.35992581 0.034951106 0.99664098 -0.0074139098 -0.081552997 0.2017768
4.8215637 14.317452 -0.35874692 0.051211167 0.99761802 -0.0094610797 -0.068329997 0.20564462
4.8222885 14.328886 -0.36008832 0.033947814 0.99736398 -0.0052437698 -0.072364002 0.19547226
4.8223858 14.334508 -0.36128032 0.034224905 0.99665499 -0.00529572 -0.0815541 0.19744004
4.8235154 14.342309 -0.35938692 0.03472003 0.99994802 -0.0049551399 -0.0089192605 0.14622031
4.821178 14.184153 -0.33449689 0.042237416 0.99995601 0.00296723 -0.0089016901 0.17939013
4.8214226 14.19442 -0.33571747 0.033602148 0.99993998 0.00098906097 -0.0108797 0.16871713
4.8220239 14.215436 -0.33779329 0.033348519 0.99988401 -0.0029847301 -0.0149236 0.13765147
4.8217831 14.127008 -0.3229121 0.029178794 0.99999899 -0.00097943097 -0.00097943097 0.17954332
4.8213086 14.167956 -0.33160838 0.042205773 0.99995601 0.0029613699 -0.0088841096 0.18895064
4.8214664 14.154751 -0.32897398 0.04222659 0.99997598 0.00098519796 -0.0068963799 0.19068696
4.8233171 14.166515 -0.32620382 0.016203715 0.99998403 0.0029556199 -0.0049260301 0.12173501
4.8225074 14.142785 -0.32387099 0.019820482 0.99999899 0.00097751606 -0.00097751606 0.11753058
4.6046638 14.439856 -0.40747565 0.042157367 0.050983999 -0.87223899 -0.486415 0.38071007
4.5959539 14.439332 -0.40847918 0.048980713 0.021481199 -0.99938798 -0.027618701 0.2496163
4.5979376 14.439672 -0.40830937 0.045450941 0.00107724 -0.99429601 0.106647 0.20866153
4.6188312 14.440368 -0.40661386 0.048306346 0.00296142 -0.99997199 0.0069099702 0.24646886
4.6197815 14.440728 -0.40740663 0.044162683 0.128703 -0.27996299 -0.95134401 0.25714505
4.6248598 14.440137 -0.40626353 0.035063609 0.107132 -0.173628 -0.97896701 0.18596052
4.62537 14.440623 -0.40617126 0.044812802 0.051135302 -0.981085 -0.186703 0.30790749
4.6282506 14.440746 -0.40614432 0.047013886 0.00333117 -0.98935801 0.14546099 0.18399574
4.6309371 14.440495 -0.40602922 0.038776863 0.093578801 -0.171359 -0.98075402 0.20089383
4.6328616 14.440885 -0.40696624 0.047850698 -0.00112871 -0.98536801 0.17043599 0.16604011
4.6447144 14.440316 -0.40439761 0.047766853 0.00112871 -0.98536801 0.17043599 0.1683107
4.6534414 14.440042 -0.40292647 0.054786384 0.0138016 -0.99689698 -0.077500999 0.25609678
4.6511636 14.440513 -0.40420121 0.042880356 0.049818002 -0.656174 -0.75296301 0.33900905
4.6406245 14.440182 -0.40425286 0.057792723 0.00112289 -0.987023 0.160574 0.17141664
4.6590447 14.440717 -0.40367866 0.046980456 0.0135073 -0.99850398 -0.052990299 0.23764898
4.6507421 14.439852 -0.40405822 0.034875643 0.070864998 -0.178964 -0.9813 0.19733837
4.6608667 14.440897 -0.4038696 0.049082156 0.067572497 -0.215003 -0.97427303 0.19966537
4.671041 14.438301 -0.40084895 0.023892894 0.056911401 -0.204639 -0.97718197 0.1431206
4.6705689 14.44131 -0.40336964 0.04867246 0.043099198 -0.25243801 -0.96665299 0.2078153
4.6677661 14.440859 -0.4030357 0.047632035 0.0090610497 -0.999735 0.021142401 0.21627942
4.6729174 14.441036 -0.40243745 0.044160645 -0.012252 -0.99018502 -0.139227 0.27533552
4.6749978 14.438639 -0.40078002 0.024367543 0.059131 -0.19670101 -0.978679 0.15371007
4.6959791 14.438786 -0.39864534 0.026430968 0.0705918 -0.17348801 -0.98230302 0.1366886
4.6831946 14.441329 -0.40181175 0.037972927 0.0068774102 -0.799155 -0.60108602 0.34635538
4.6845717 14.441433 -0.40196916 0.043167353 0.056984302 -0.37238601 -0.92632699 0.2459857
4.6948452 14.441154 -0.40047306 0.047286049 0.072635703 -0.215445 -0.97381097 0.18757549
4.6957994 14.440871 -0.40022665 0.046999924 0.0092411498 -0.999071 0.0420986 0.21488918
4.70544 14.441164 -0.39972526 0.047266386 0.0032510799 -0.99374598 0.11162 0.19403256
4.700727 14.44176 -0.40193611 0.028530171 0.00113079 -0.98491901 0.173011 0.15775104
4.7098293 14.441786 -0.40107673 0.037200093 0.00113079 -0.98491901 0.173011 0.15437645
4.6935987 14.441243 -0.40082142 0.042053759 0.16877501 -0.92756802 -0.33336601 0.3230353
4.7067566 14.442037 -0.40001905 0.037142649 0.15477499 -0.85052299 -0.50264901 0.31620273
4.7166772 14.441528 -0.39906979 0.047896143 0.0011 -0.99110198 0.1331 0.18572848
4.7053361 14.441407 -0.39965239 0.044512518 0.123804 -0.333318 -0.93465102 0.22756183
4.7001677 14.441982 -0.40026981 0.036827907 0.27852899 -0.61594599 -0.73690701 0.31517211
4.7135196 14.441556 -0.39942709 0.045274835 0.075942501 -0.58604699 -0.80671 0.31064153
4.7145824 14.440556 -0.39844865 0.045101929 0.065519199 -0.172732 -0.98278701 0.17017962
4.7091017 14.43999 -0.39837286 0.026466874 0.068050198 -0.17310999 -0.98254901 0.15802743
4.7176623 14.441372 -0.39907789 0.047542509 0.069792002 -0.206927 -0.97586399 0.18650356
4.7194576 14.440171 -0.39792436 0.026625179 0.063146301 -0.172759 -0.98293799 0.15365697
4.7156663 14.441482 -0.39912564 0.037916414 0.070653997 -0.76854199 -0.63588601 0.33505571
4.7242937 14.441698 -0.39933541 0.050794438 0.075350501 -0.42333299 -0.90283501 0.26052395
4.7569737 14.44087 -0.39596298 0.042860862 0.00112871 -0.98536801 0.17043599 0.12313506
4.743227 14.441449 -0.39665061 0.042823393 0.00112871 -0.98536801 0.17043599 0.15551813
4.7384806 14.440802 -0.39617553 0.04943468 -0.0092403302 -0.99898201 0.044148199 0.21179087
4.7318459 14.441328 -0.39721039 0.040292319 -0.0094045 -0.997922 0.063741602 0.20080595
4.7310705 14.440598 -0.39753973 0.034999076 0.045844302 -0.17279799 -0.98389 0.15877457
4.7613111 14.441062 -0.40062484 0.019656608 0.0034012599 -0.98523098 0.171197 0.055640589
4.7554612 14.441682 -0.39894632 0.019591151 0.00113123 -0.98530197 0.170816 0.071797743
4.755887 14.440991 -0.39698452 0.037007891 0.026601899 -0.174647 -0.984272 0.18611428
4.7553191 14.439349 -0.3957836 0.018506762 0.026601899 -0.174647 -0.984272 0.11082829
4.7462068 14.441005 -0.39623377 0.037509773 -0.0121107 -0.86793101 -0.496537 0.35071027
4.7617388 14.440372 -0.39568728 0.04699941 0.0058669201 -0.97508198 -0.22176901 0.28722504
4.8118672 14.432013 -0.3905583 0.022419253 0.021927999 -0.17427 -0.98445398 0.081979111
4.820785 14.376571 -0.37113801 0.03276198 0.021927999 -0.17427 -0.98445398 0.18906431
4.7706456 14.43824 -0.39542577 0.042511471 0.00108757 -0.992948 0.118545 0.14250721
4.8151088 14.437588 -0.39340401 0.046026859 0.0122092 -0.99116403 -0.132081 0.1143091
4.8143978 14.436909 -0.39327386 0.046835579 0.0094610797 -0.99761802 -0.068329997 0.17291965
4.8153677 14.445188 -0.4098278 0.025982404 0.0125828 -0.98488897 0.172727 0.10418238
4.8143506 14.442602 -0.40304798 0.030140972 0.0125545 -0.98495799 0.17233901 0.084147535
4.8151479 14.442614 -0.39706197 0.049913347 0.0084347203 -0.26147601 -0.96517301 0.12692031
4.8147483 14.441415 -0.39623323 0.0458172 0.017674901 -0.213277 -0.97683197 0.10273553
4.8211489 14.387218 -0.37271088 0.053166442 0.0242902 -0.174658 -0.98433 0.20722628
4.8205762 14.386655 -0.37309825 0.032664757 0.024235001 -0.174261 -0.98440099 0.19341993
4.8132801 14.42979 -0.38865432 0.029275181 0.024235001 -0.174261 -0.98440099 0.13281402
4.8147626 14.436141 -0.39151928 0.052852936 0.027062399 -0.19649699 -0.98013097 0.10227531
4.8130326 14.435455 -0.39240438 0.030722687 0.0242803 -0.176899 -0.98392898 0.12356917
4.8143983 14.436347 -0.39202043 0.051573481 0.0269504 -0.19334 -0.980762 0.095028184
4.8155088 14.438098 -0.3932085 0.043448508 0.0085965097 -0.95666802 -0.291053 0.072019204
4.8197317 14.446241 -0.44901004 0.037353672 0.26166901 -0.95140201 0.162369 0.26719505
4.8208752 14.448838 -0.43501833 0.043479633 0.58787298 -0.798145 0.13179 0.27427891
4.8201137 14.445378 -0.46206766 0.032277334 0.322761 -0.92916 0.180243 0.28517544
4.8154778 14.44207 -0.39634392 0.045086708 0.0132477 -0.25411499 -0.96708298 0.10331352
4.8166313 14.441199 -0.39675504 0.044296388 0.057358801 -0.99309403 0.102346 0.1352489
4.81567 14.4368 -0.39210203 0.047884256 0.0139367 -0.99593598 -0.088980302 0.11233325
4.8187246 14.446346 -0.40179071 0.044557758 0.471075 -0.87526 0.109585 0.17814018
4.8181243 14.447196 -0.40496156 0.036604732 0.62091899 -0.77651602 0.107156 0.17194726
4.8216782 14.376962 -0.37002537 0.051700834 0.106663 -0.170415 -0.97958201 0.22419418
4.820611 14.365502 -0.36937669 0.036488939 0.678689 -0.110897 -0.72600502 0.33889145
4.8165784 14.442478 -0.39567819 0.051417187 0.166612 -0.340224 -0.925466 0.092046618
4.8210649 14.392897 -0.37415063 0.053112261 0.031484801 -0.180746 -0.98302603 0.20587632
4.8177085 14.436364 -0.38826466 0.037351239 0.76118302 -0.126616 -0.63605702 0.22545534
4.819726 14.444517 -0.46137944 0.046482235 0.94585299 -0.31528401 0.077185802 0.24961568
4.820488 14.447697 -0.39776838 0.038856734 0.69495898 -0.71769798 0.044056699 0.14184594
4.8186269 14.448706 -0.40344056 0.044666369 0.78368402 -0.61564797 0.082569197 0.13822073
4.8208542 14.385115 -0.37304741 0.04052322 0.56551999 -0.124855 -0.815229 0.35066116
4.8206244 14.372135 -0.37106928 0.050554354 0.949714 -0.031530999 -0.311526 0.25783938
4.817194 14.434512 -0.38577971 0.048262797 0.96842301 -0.0607589 -0.241796 0.17236418
4.8179097 14.450064 -0.41714287 0.045102343 0.94946599 -0.31227401 0.0316067 0.19289985
4.8162694 14.449038 -0.40314421 0.045281257 0.98358297 -0.178093 0.0291001 0.11539908
4.8231072 14.458373 -0.42754024 0.021894734 0.99823201 -0.059208401 0.0051937201 0.11741255
4.8163233 14.449074 -0.40620539 0.048031244 0.98276299 -0.18405101 0.017363301 0.1399827
4.8189883 14.452958 -0.41852352 0.028044412 0.99467498 -0.1026 0.0097199501 0.1458322
4.8170075 14.44919 -0.40168405 0.043261867 0.95874798 -0.28124899 0.041249901 0.11155443
4.8183355 14.449944 -0.39998719 0.042055544 0.92923898 -0.36725199 0.0405153 0.062727511
4.8218451 14.359028 -0.36518762 0.043850515 0.99987602 -0.00498443 -0.0149533 0.16581036
4.8235989 14.361955 -0.35971662 0.021112951 0.99991298 0.00297298 -0.0128829 0.10261184
4.8207903 14.367457 -0.36936879 0.043686576 0.99963301 -0.00100264 -0.027071301 0.17077319
4.816566 14.425842 -0.38233787 0.044827566 0.99861097 -0.0135088 -0.050917801 0.20151889
4.8174887 14.42517 -0.37959611 0.025853081 0.99999899 0.00097751606 -0.00097751606 0.12729567
4.8193569 14.393003 -0.37657234 0.04508318 0.99877799 -0.0092957597 -0.0485445 0.19551766
4.8205366 14.390167 -0.37331507 0.021117074 0.99998403 0.0029556199 -0.0049260301 0.13036463
4.8215089 14.371814 -0.36796033 0.021305831 0.99990398 0.0049746502 -0.0129341 0.12324851
4.8215685 14.371408 -0.36773345 0.021300502 0.99990398 0.0049746502 -0.0129341 0.12324851
4.8202004 14.398532 -0.37510535 0.021201989 0.99999499 0.00098134996 -0.0029440499 0.13484058
4.8227768 14.36938 -0.36353162 0.021258049 0.99993598 0.0029730501 -0.0109012 0.13226084
4.8168087 14.420004 -0.3809537 0.05266038 0.99724901 -0.020221701 -0.071308099 0.21369998
4.8211384 14.459909 -0.38895702 0.031817611 0.99999899 0.00097751606 -0.00097751606 0.030148372
4.8169436 14.447393 -0.39078522 0.044076022 0.99970502 -0.017184 -0.017184 0.049847983
4.8188071 14.452906 -0.3919318 0.044478014 0.99997598 -0.00492599 -0.00492599 0.058981866
4.8165092 14.440549 -0.38761333 0.044442803 0.99700302 -0.0289142 -0.07175 0.096057937
4.8185 14.448218 -0.38658097 0.039401021 0.99985498 -0.0129851 -0.0109874 0.020814322
4.816926 14.444387 -0.3880702 0.044207003 0.99980199 -0.0150422 -0.0130365 0.040983841
4.818593 15.595836 -0.38678339 0.032750007 0.0195684 0.98417503 -0.176116 0.20485139
4.8175292 15.594941 -0.39536837 0.032709539 0.017267 0.98421699 -0.17612299 0.19742395
4.8173728 15.596375 -0.38723823 0.032831356 0.0148977 0.98439598 -0.175335 0.18163307
4.8134055 15.597322 -0.39172959 0.01887282 0.0125778 0.98449802 -0.174946 0.12188823
4.8188939 15.582999 -0.45469543 0.050729882 0.0311902 0.98537803 -0.167503 0.21639231
4.8182945 15.582953 -0.45680028 0.036036752 0.031143 0.98619503 -0.162636 0.19953623
4.8192258 15.579501 -0.46950632 0.050802588 0.0333203 0.98697102 -0.15741 0.20530686
4.8197389 15.585217 -0.44160238 0.048411641 0.0267627 0.98323703 -0.18035699 0.22386201
4.8197336 15.587399 -0.42946726 0.055605855 0.017547499 0.97915 -0.202381 0.22555493
4.8180957 15.588383 -0.43054754 0.030843148 0.0197955 0.98162198 -0.189804 0.19574547
4.8181105 15.591751 -0.41086572 0.032657508 0.02196 0.98357701 -0.17914701 0.20218584
4.8186355 15.589787 -0.41964328 0.041655306 0.0174517 0.98078799 -0.194296 0.20348226
4.818357 15.591676 -0.41054544 0.032800641 0.0196776 0.98272097 -0.18404301 0.20699039
4.8185825 15.594205 -0.3963359 0.046086695 0.0150423 0.98237902 -0.18629301 0.20350857
4.8196793 15.588566 -0.42348284 0.053846743 0.205808 0.953713 -0.21926001 0.29351518
4.8193526 15.595701 -0.38448617 0.049524337 0.168552 0.96885401 -0.181419 0.27323416
4.8193803 15.585063 -0.4447152 0.039685793 0.70466298 0.69564801 -0.139731 0.40720969
1.2932767 13.757116 -2.4170969 0.05259243 -0.141559 -0.195122 -0.97050899 0.2675989
1.2975754 13.742832 -2.4145536 0.044721302 -0.102726 -0.189363 -0.97651899 0.25365356
1.2926506 13.759479 -2.4176459 0.052773144 -0.11635 -0.191415 -0.97458899 0.25990364
1.3083532 13.70235 -2.4071083 0.027224611 -0.056246102 -0.19027901 -0.98011702 0.20613891
1.2969769 13.743872 -2.4145801 0.054073606 -0.120804 -0.20981801 -0.970249 0.25684601
1.3034049 13.720137 -2.4099 0.040586401 -0.079686902 -0.19737799 -0.97708303 0.22300974
1.3071374 13.706046 -2.4076014 0.040438417 -0.066560999 -0.192422 -0.97905201 0.22254832
1.3112367 13.685461 -2.403805 0.055610318 -0.11427 -0.199659 -0.97318 0.23263855
1.3129369 13.68443 -2.4043415 0.027356599 -0.051135302 -0.186703 -0.981085 0.18462203
1.3004013 13.730855 -2.4115131 0.046871033 -0.117716 -0.20885 -0.970837 0.24953112
1.308377 13.699656 -2.4063563 0.041056201 -0.095417298 -0.19950899 -0.97523898 0.22995508
1.3111745 13.687327 -2.4042666 0.041094046 -0.092781797 -0.196697 -0.97606403 0.22830273
4.8181462 15.59871 -0.37623569 0.047864676 0.97823602 0.200941 -0.051739398 0.27147779
4.8176489 15.600129 -0.37115762 0.052440047 0.946235 0.312794 -0.082451999 0.314827
4.8179736 15.598427 -0.37864387 0.047059841 0.88877702 0.45199099 -0.076022901 0.35833639
4.8178334 15.6002 -0.36970764 0.047688175 0.96838897 0.240539 -0.066054903 0.28657553
4.8176117 15.60144 -0.36426991 0.048832264 0.895015 0.43280101 -0.10785 0.35723212
4.8175383 15.606885 -0.33347565 0.051812697 0.99866998 0.050709698 -0.0093140202 0.2047828
4.8199382 15.601655 -0.33178988 0.015505258 0.99996001 0.0088666398 -0.00098518201 0.11097516
4.8194227 15.600516 -0.34755915 0.032219291 0.99988502 0.014894 -0.0029788001 0.15107569
4.8195806 15.600999 -0.34284011 0.03220195 0.99988502 0.014894 -0.0029788001 0.16008703
4.8175011 15.611946 -0.29825667 0.036296573 0.99996001 0.0088841496 -0.00098712696 0.17589718
4.8170304 15.61454 -0.28562564 0.047167338 0.99996001 0.0088841496 -0.00098712696 0.20237011
4.8173342 15.612268 -0.29857659 0.046883471 0.99988502 0.014894 -0.0029788001 0.21285188
4.8180418 15.612473 -0.28000402 0.024637545 0.99998701 0.0049163601 -0.00098327198 0.11541785
4.8192444 15.591755 -0.40213257 0.031505287 0.99993998 0.0108797 -0.00098906097 0.11230366
4.8184919 15.59465 -0.39593121 0.04351595 0.94177902 0.33516601 -0.026762299 0.30666852
4.8191276 15.599331 -0.3607859 0.030771535 0.998496 0.051124599 -0.019823801 0.16261262
4.8181033 15.602844 -0.35298583 0.049710818 0.992311 0.115751 -0.043827999 0.23394603
4.8197312 15.598949 -0.35340768 0.031899028 0.99976599 0.021058301 -0.0050138701 0.14015085
4.8213205 15.588595 -0.38246414 0.016246691 0.99999499 0.0029382801 -0.00097942702 0.053560182
4.8196259 15.593135 -0.38950494 0.016258026 0.99999499 0.0029382801 -0.00097942702 0.051140383
4.8169632 15.614768 -0.28594735 0.046009257 0.93082899 0.36321899 -0.040357601 0.35791102
4.8166099 15.618626 -0.2639688 0.052118938 0.98240298 0.17742801 -0.058348801 0.27199006
4.8164968 15.620535 -0.25484657 0.046971377 0.99893999 0.046010599 -0.0010224601 0.19862647
4.817317 15.618484 -0.2555629 0.035402074 0.99982101 0.018902101 -0.00099484704 0.16323733
4.8167481 15.617771 -0.26760051 0.053942744 0.99944299 0.033348501 -0.00101056 0.21162198
4.8173008 15.616858 -0.26572281 0.035580456 0.99985701 0.0168794 -0.00099290698 0.18328083
4.8170986 15.618157 -0.26039565 0.035380803 0.99973601 0.0229709 -0.00099873706 0.18060896
4.8169274 15.61299 -0.29829311 0.044044416 0.96597397 0.25815901 -0.015756199 0.31752548
4.8172097 15.611696 -0.30525881 0.05063938 0.98295701 0.18322399 -0.0149806 0.29217321
4.62955 15.652169 -0.17835018 0.026734639 -0.00343119 0.982463 -0.186428 0.15324043
4.8131633 15.605146 -0.34972844 0.02219573 0.0079685403 0.98468298 -0.174169 0.15581103
4.8141608 15.601557 -0.3660439 0.022088604 0.0102681 0.98459399 -0.174557 0.15973583
4.8153467 15.613878 -0.29281735 0.03507321 0.00113123 0.98530197 -0.170816 0.18064962
4.8163934 15.612857 -0.29689151 0.041449785 0.0033936801 0.98529702 -0.17081501 0.20585623
4.8168097 15.613749 -0.29079661 0.041505523 0.0033936801 0.98529702 -0.17081501 0.22286031
4.8160887 15.618027 -0.26514617 0.023595978 0.00339993 0.984846 -0.17339601 0.16593121
4.8146319 15.6178 -0.2700803 0.020695122 0.00339993 0.984846 -0.17339601 0.10627794
4.819407 15.603784 -0.34227341 0.054039452 0.028936399 0.98499399 -0.170146 0.22354782
4.8167696 15.607883 -0.32740688 0.021952791 0.0148701 0.98485798 -0.172722 0.15064831
4.8183246 15.603353 -0.34684801 0.049129393 0.0149037 0.98478901 -0.173112 0.20657279
4.8139262 15.610995 -0.31284696 0.034715347 0.0079538301 0.98513901 -0.17157599 0.13946441
4.8171134 15.608731 -0.32097989 0.034288313 0.017163901 0.98520899 -0.170495 0.17480424
4.8191323 15.60807 -0.3174915 0.054218031 0.021846 0.98537099 -0.169019 0.22844754
4.817163 15.61518 -0.2809076 0.044160783 0.0056687002 0.98522103 -0.171195 0.22235955
4.8168201 15.619655 -0.25508723 0.043248393 0.0287726 0.98632598 -0.162278 0.22092427
4.8168378 15.616989 -0.26899713 0.043798774 0.0125312 0.98540902 -0.169741 0.21813115
4.8174725 15.617614 -0.26301119 0.051587496 0.042803802 0.98680103 -0.156176 0.24026963
4.8173909 15.615575 -0.27812618 0.051931951 0.017138399 0.98603201 -0.165672 0.22939353
4.8157659 15.624359 -0.22728688 0.042151906 0.043232199 0.98499399 -0.167087 0.17407052
4.8159785 15.622965 -0.23322758 0.042857148 0.045494601 0.985717 -0.162148 0.19309059
4.7596455 15.647902 -0.17398055 0.028431911 0.0056918999 0.98469901 -0.174172 0.13020878
4.7674885 15.64951 -0.17344984 0.028460663 0.0148977 0.98439598 -0.175335 0.14407535
4.8138051 15.628358 -0.20804219 0.021521484 0.028991001 0.98453301 -0.172786 0.043652937
4.8196731 15.601321 -0.35242158 0.048264243 0.0846375 0.977624 -0.192581 0.23915844
4.8196106 15.600435 -0.35717982 0.04745945 0.119868 0.97282499 -0.198098 0.25502604
4.818295 15.611218 -0.30102816 0.051468447 0.084148198 0.979289 -0.18415 0.25472969
4.8163714 15.62548 -0.2211435 0.037911851 0.20657 0.965294 -0.15979999 0.24802861
4.8194265 15.605533 -0.33178866 0.046419762 0.42923999 0.88882899 -0.160423 0.36043546
4.8171978 15.619699 -0.23479533 0.036007542 0.99752402 0.070130199 -0.0052335998 0.16204292
4.8159962 15.621524 -0.23740368 0.053257395 0.98712999 0.15943301 -0.0124381 0.21764773
4.8161826 15.621128 -0.23705973 0.045289941 0.99419397 0.107334 -0.0075892699 0.18943092
4.820704 16.108522 -0.23776172 0.048809968 0.134058 -0.171645 -0.975995 0.22883011
4.8203449 16.079838 -0.2325387 0.04922805 0.055500999 -0.17122699 -0.98366702 0.20184706
4.8176928 16.094114 -0.23662996 0.029571224 0.0218783 -0.173875 -0.98452502 0.16137347
4.8153868 16.124382 -0.24383759 0.027374854 0.0218783 -0.173875 -0.98452502 0.15091951
4.8196387 16.111115 -0.23905732 0.040762845 0.083494999 -0.17304 -0.98136902 0.20553297
4.818644 16.100822 -0.23754482 0.041645125 0.0385198 -0.173923 -0.98400599 0.18038531
4.816421 16.082602 -0.23501918 0.019298334 0.021927999 -0.17427 -0.98445398 0.11740432
4.8199005 16.063688 -0.22983131 0.041647758 0.0195763 -0.17388301 -0.98457199 0.19916299
4.8195095 16.06951 -0.2310527 0.029688179 0.0195763 -0.17388301 -0.98457199 0.18158665
4.8205433 16.058695 -0.228631 0.050082307 0.0218783 -0.173875 -0.98452502 0.21834743
4.8207455 16.099695 -0.23583402 0.047614988 0.51250798 -0.126312 -0.84934098 0.33127511
4.8193388 16.092449 -0.23583995 0.049287524 0.90243101 -0.052608099 -0.42761001 0.31807312
4.8097973 16.136192 -0.24787964 0.027351851 0.0218783 -0.173875 -0.98452502 0.11735185
4.8202238 16.28232 -0.26607496 0.036705349 0.046193901 -0.18359099 -0.98191702 0.17731851
4.8199916 16.278164 -0.26552105 0.028020965 0.046106499 -0.18088 -0.98242402 0.15543631
4.8204718 16.23311 -0.25830144 0.028934801 0.031307999 -0.172774 -0.98446399 0.15221103
4.8200932 16.181171 -0.25088781 0.03621085 0.045477301 -0.164418 -0.98534203 0.1688325
4.8181658 16.170425 -0.25043473 0.03381921 0.038389001 -0.166353 -0.98531902 0.15966773
4.8179336 16.160231 -0.24895875 0.03390063 0.035969101 -0.16824301 -0.985089 0.16086034
4.8197188 16.308434 -0.27101523 0.028391724 0.033828601 -0.17847501 -0.98336297 0.18840905
4.8190603 16.316816 -0.27354714 0.034979943 0.026662599 -0.175046 -0.98419899 0.18018661
4.8159499 16.323322 -0.27624917 0.02494384 0.0195763 -0.17388301 -0.98457199 0.11692249
4.821754 16.226904 -0.25648382 0.043121703 0.050942 -0.18125901 -0.98211497 0.18130523
4.8197145 16.203941 -0.25448424 0.035266504 0.060980901 -0.18055101 -0.981673 0.18535726
4.8203483 16.190212 -0.25231189 0.035168961 0.072860502 -0.168415 -0.98302001 0.19274022
4.8219743 16.226814 -0.25633138 0.046863392 0.132796 -0.190973 -0.97257102 0.20807718
4.8222208 16.216345 -0.25463441 0.039172262 0.36752599 -0.18733799 -0.91095001 0.27718329
4.8208528 16.247002 -0.26018399 0.042868197 0.047840498 -0.159857 -0.98597997 0.15779583
4.8211117 16.227587 -0.25697875 0.038793139 0.028816201 -0.167134 -0.98551297 0.17186055
4.8158164 16.140978 -0.24660453 0.033515301 0.043132901 -0.166703 -0.98506302 0.14825097
4.820128 16.154274 -0.24720255 0.033016566 0.096720502 -0.142096 -0.985116 0.18054739
4.8186169 16.136677 -0.24484451 0.032764293 0.391673 -0.18933301 -0.90041399 0.26412138
4.8179517 16.133741 -0.24486724 0.031773172 0.372491 -0.19415601 -0.90749902 0.26567236
4.818994 16.117861 -0.24118344 0.038537752 0.213047 -0.163379 -0.96328503 0.23711893
4.8193035 16.127943 -0.24292046 0.031782147 0.65613699 -0.133021 -0.74282497 0.30642182
4.8219428 16.273773 -0.26349202 0.04501697 0.115666 -0.182826 -0.976318 0.21890871
4.8213162 16.259932 -0.26138845 0.040622458 0.065645598 -0.17545301 -0.982297 0.17912801
4.8221965 16.253113 -0.25960773 0.051565964 0.18528201 -0.113159 -0.97614801 0.22847085
4.8212895 16.306417 -0.26967776 0.052040812 0.061535601 -0.19667301 -0.97853601 0.20752506
4.8207908 16.32239 -0.27365407 0.050972022 0.091706797 -0.179745 -0.97942901 0.21557039
4.8202019 16.33881 -0.27702481 0.034863327 0.0313797 -0.173169 -0.98439199 0.18889168
4.8204565 16.335436 -0.27616048 0.03395725 0.0605135 -0.16967499 -0.98364002 0.19817236
4.8215704 16.305506 -0.26933312 0.048410892 0.23290101 -0.211109 -0.94931 0.26790786
4.8219705 16.279869 -0.2642644 0.049963105 0.25222301 -0.179389 -0.95089602 0.27069789
4.8206797 16.281462 -0.26682529 0.049147222 0.89649099 -0.075740397 -0.43654001 0.31683752
4.8205013 16.178715 -0.25042924 0.044679459 0.52365398 -0.146033 -0.83932197 0.29783052
4.8214359 16.195633 -0.25218385 0.045622934 0.33877701 -0.160327 -0.92710602 0.26938277
4.8202491 16.175426 -0.25027552 0.040840682 0.60299402 -0.119419 -0.78875703 0.29969236
4.8218889 16.231913 -0.25791013 0.043007039 0.60701299 -0.23998199 -0.75759 0.32893586
4.8218889 16.234591 -0.2579335 0.041929655 0.34812099 -0.201996 -0.915429 0.27724397
4.822432 16.221167 -0.25509232 0.034413502 0.81572098 -0.115695 -0.56675798 0.34229082
4.8197541 16.133028 -0.24357539 0.030619834 0.61376798 -0.17819101 -0.76911402 0.30512401
4.8191285 16.115635 -0.24033697 0.042730406 0.93418401 -0.032302398 -0.355326 0.29807708
4.8196635 16.138391 -0.2444867 0.035392068 0.70519698 -0.175917 -0.68684101 0.30801874
4.8204374 16.340006 -0.27769831 0.04616126 0.941333 -0.045194302 -0.334438 0.30068126
4.820354 16.362127 -0.28182328 0.049934108 0.22228201 -0.161779 -0.96146703 0.26849729
4.8203182 16.356577 -0.28086373 0.051645845 0.163287 -0.16075601 -0.97339398 0.24409354
4.8221121 16.255772 -0.26069322 0.032211423 0.80618399 -0.0406597 -0.590267 0.34453022
4.8216619 16.269308 -0.26351047 0.041924726 0.81711203 -0.106326 -0.566589 0.34252149
4.8212056 16.295795 -0.26814687 0.033144627 0.86296302 -0.107334 -0.49373499 0.34093764
4.8206353 16.293251 -0.26822406 0.041474082 0.98734802 -0.026253199 -0.156378 0.24102145
4.8205628 16.293449 -0.26840064 0.039891761 0.97042298 -0.040281702 -0.238028 0.269658
4.8202057 16.317995 -0.27381629 0.050483465 0.990421 -0.044347201 -0.130767 0.24286553
4.8204908 16.315765 -0.27287629 0.051597379 0.99825901 -0.0199023 -0.055516999 0.21106346
4.8203449 16.157513 -0.24661332 0.038052104 0.99788302 -0.0115423 -0.0640072 0.20090139
4.8212647 16.176584 -0.24888647 0.035215579 0.96129602 -0.0540336 -0.27016801 0.25976145
4.8198204 16.160852 -0.24807802 0.048580639 0.96861303 -0.030383101 -0.246711 0.24775973
4.8199439 16.363766 -0.2825397 0.040732499 0.48235199 -0.166684 -0.85997301 0.34903336
4.821229 16.369682 -0.28150663 0.034919437 0.99962598 -0.00302002 -0.0271802 0.19400901
4.8209105 16.370375 -0.28228074 0.036854416 0.99919498 -0.0051031401 -0.0398045 0.21080321
4.8205094 16.355904 -0.28019094 0.033533636 0.997132 -0.0095166396 -0.075075701 0.22428246
4.8204441 16.35301 -0.27987027 0.033283271 0.99600297 -0.00962839 -0.088795103 0.23513125
4.8213735 16.200134 -0.2522994 0.041453369 0.99998403 -0.0029556199 -0.0049260301 0.19388489
4.8213229 16.20817 -0.25391221 0.041332379 0.99995601 -0.00296723 -0.0089016901 0.18892576
4.8215466 16.202955 -0.25248909 0.041364111 0.99997199 -0.0029555799 -0.0068963598 0.1905013
4.8206701 16.198784 -0.25341809 0.052828647 0.99997199 -0.0029555799 -0.0068963598 0.19278105
4.8213754 16.195942 -0.25138125 0.041457459 0.99998403 -0.0029498001 -0.0049163401 0.19294466
4.8207116 16.196306 -0.25301236 0.052836969 0.99997199 -0.0029555799 -0.0068963598 0.1950651
4.8192773 16.139162 -0.24449965 0.051537666 0.99931002 -0.015374 -0.033822801 0.17978139
4.8194237 16.150461 -0.24654673 0.05095106 0.99832398 -0.0262994 -0.051546801 0.20224565
4.821281 16.246584 -0.26028422 0.039312419 0.96464801 -0.030721299 -0.26174501 0.27157998
4.8216462 16.230917 -0.25758684 0.043667283 0.99987602 -0.0049745101 -0.0149235 0.19659084
4.8222494 16.240549 -0.2573882 0.039126199 0.99998701 -0.00098327198 -0.0049163601 0.15712775
4.8207912 16.293402 -0.26790255 0.045371782 0.99998701 -0.00098134205 -0.0049067098 0.18508652
4.8213716 16.296648 -0.26714528 0.025620997 0.99999499 -0.00098134996 -0.0029440499 0.13713035
4.8212433 16.304585 -0.26885805 0.025614461 0.99999499 -0.00098134996 -0.0029440499 0.14084423
4.8212428 16.295427 -0.26726803 0.043254975 0.99999499 -0.00098134996 -0.0029440499 0.16037622
4.8261147 16.284994 -0.24752264 0.017184485 0.99999899 -0.00097943097 -0.00097943097 0.068852097
4.8248844 16.250572 -0.25060821 0.019920262 0.99999899 0.00097943097 -0.00097943097 0.085560367
4.8222938 16.271746 -0.26275417 0.036520738 0.99999499 0.00097942702 -0.0029382801 0.14710991
4.8227429 16.25334 -0.25820595 0.025587384 0.99999499 0.00097942702 -0.0029382801 0.14213958
4.8222113 16.225893 -0.25555918 0.038210522 0.99993598 -0.0029730501 -0.0109012 0.17578569
4.8217907 16.224796 -0.25617191 0.043592289 0.99987602 -0.0049745101 -0.0149235 0.1970752
4.8210797 16.330004 -0.2742438 0.045203362 0.99996001 -0.00098518201 -0.0088666398 0.18416919
4.8233743 16.316889 -0.265423 0.024221307 0.99999499 -0.00097942702 -0.0029382801 0.11417761
4.8032484 16.566319 -0.32335323 0.023752328 0.0195763 -0.17388301 -0.98457199 0.10994849
4.8111191 16.552795 -0.31953645 0.023766818 0.0195763 -0.17388301 -0.98457199 0.14608051
4.8205209 16.439402 -0.29481512 0.040800329 0.0195763 -0.17388301 -0.98457199 0.19373518
4.8196373 16.44449 -0.2962096 0.031240636 0.0195763 -0.17388301 -0.98457199 0.18139315
4.8159184 16.383768 -0.28748503 0.020694604 0.0218783 -0.173875 -0.98452502 0.12685908
4.8144388 16.586744 -0.32430664 0.040791214 0.0242902 -0.174658 -0.98433 0.1774012
4.8124352 16.591572 -0.32570708 0.023487648 0.0242902 -0.174658 -0.98433 0.14633889
4.8123956 16.574625 -0.32287076 0.023658704 0.021927999 -0.17427 -0.98445398 0.13353659
4.8133836 16.57135 -0.32202524 0.02366217 0.021927999 -0.17427 -0.98445398 0.13353661
4.8149791 16.606531 -0.32766196 0.034347557 0.0289793 -0.175035 -0.98413599 0.16950163
4.8176765 16.498333 -0.3071751 0.048660364 0.031438801 -0.175825 -0.98391902 0.22489394
4.8161073 16.48563 -0.30532992 0.019007819 0.0218783 -0.173875 -0.98452502 0.1581575
4.8102093 16.51853 -0.31351823 0.015389095 0.026662599 -0.175046 -0.98419899 0.082119159
4.815217 16.526552 -0.31370634 0.036041502 0.0289793 -0.175035 -0.98413599 0.1750553
4.8129334 16.551966 -0.31893909 0.023770589 0.0195763 -0.17388301 -0.98457199 0.14608051
4.8183427 16.514166 -0.3101151 0.050754383 0.0386816 -0.176998 -0.98345101 0.22051889
4.8172626 16.522972 -0.3122243 0.050746478 0.033842601 -0.17621499 -0.98377001 0.20143536
4.8194289 16.462063 -0.29928273 0.031099802 0.0242447 -0.172022 -0.98479497 0.20645891
4.8195705 16.458696 -0.29867688 0.031155523 0.0218783 -0.173875 -0.98452502 0.20190319
4.8206882 16.444748 -0.29557225 0.044931903 0.033638 -0.17050999 -0.98478198 0.21275471
4.8180656 16.470831 -0.30176347 0.019046858 0.0218783 -0.173875 -0.98452502 0.17608066
4.8183718 16.480896 -0.30363223 0.042395514 0.073174402 -0.17154001 -0.98245603 0.23062137
4.8192086 16.480276 -0.30294606 0.054886632 0.133518 -0.165962 -0.97705197 0.26494071
4.8191996 16.475952 -0.30207416 0.047315121 0.085764602 -0.167905 -0.98206502 0.24273586
4.8209481 16.398687 -0.28727034 0.039725013 0.0195763 -0.17388301 -0.98457199 0.19022876
4.8202076 16.390791 -0.28651944 0.039659064 0.0218783 -0.173875 -0.98452502 0.19372153
4.8206019 16.396646 -0.28717262 0.039676409 0.0218783 -0.173875 -0.98452502 0.18085182
4.8208017 16.386545 -0.2857022 0.039292891 0.036188401 -0.17393801 -0.98409098 0.2010832
4.8203411 16.384521 -0.28558102 0.039303131 0.033778802 -0.173553 -0.984245 0.19875489
4.8186479 16.513458 -0.30984527 0.050882932 0.036256898 -0.176606 -0.98361403 0.22201355
4.8182464 16.52809 -0.31280708 0.051046163 0.021969 -0.176909 -0.98398203 0.21128736
4.817091 16.554035 -0.31793573 0.051020619 0.0358462 -0.16073 -0.98634702 0.21738726
4.8135238 16.555592 -0.31938225 0.023773335 0.0195763 -0.17388301 -0.98457199 0.13539124
4.8142257 16.559589 -0.31983536 0.02352749 0.024199201 -0.169394 -0.98525101 0.13945685
4.8145003 16.559799 -0.31980771 0.023536438 0.024199201 -0.169394 -0.98525101 0.1517849
4.8152914 16.566578 -0.32058701 0.023481941 0.026562599 -0.16977 -0.98512602 0.14532876
4.8208771 16.430542 -0.29310033 0.050399214 0.040961199 -0.17203701 -0.98423898 0.21964797
4.8208823 16.425112 -0.29226357 0.046717383 0.445142 -0.14838099 -0.88308102 0.35801214
4.8213892 16.408497 -0.28873169 0.052683808 0.205272 -0.171278 -0.96360099 0.27227205
4.8202672 16.40822 -0.29039037 0.049268831 0.87493497 -0.088476598 -0.47608799 0.36464229
4.8204393 16.372906 -0.28372529 0.036506657 0.20621701 -0.174694 -0.96278602 0.25321156
4.8177614 16.552584 -0.31703097 0.044719271 0.427044 -0.144252 -0.89265001 0.34849197
4.8174882 16.578335 -0.3218866 0.048819706 0.112924 -0.149351 -0.982315 0.23391077
4.8199191 16.469173 -0.30064106 0.039485648 0.707156 -0.111188 -0.69826102 0.41109604
4.8186722 16.496229 -0.30644003 0.035159733 0.72677499 -0.120386 -0.67624301 0.40689942
4.8162837 16.557125 -0.31849721 0.039049659 0.77833903 -0.094919398 -0.62062699 0.37326476
4.8214593 16.39739 -0.28675622 0.048330199 0.49529201 -0.164112 -0.85308498 0.34643671
4.8209248 16.386992 -0.28549629 0.047968011 0.99227601 -0.043926001 -0.11601 0.23784024
4.8183112 16.482145 -0.30411133 0.049093876 0.99305999 -0.0209413 -0.115728 0.24900673
4.8181639 16.485287 -0.30473843 0.049086619 0.99205798 -0.023381799 -0.12359 0.25344971
4.8184958 16.482794 -0.30393758 0.048785027 0.99565601 -0.0161808 -0.091691002 0.24079959
4.8181038 16.505955 -0.30796021 0.042435963 0.99987602 -0.0049745101 -0.0149235 0.19825636
4.8179479 16.506502 -0.30832604 0.041886605 0.99939501 -0.0091501102 -0.0335504 0.20299715
4.8164301 16.517691 -0.31188574 0.051736925 0.98148698 -0.046173699 -0.18587901 0.27023596
4.8150992 16.578285 -0.32283425 0.047777124 0.94007897 -0.0533101 -0.33676401 0.30988884
4.8156543 16.601929 -0.32668304 0.046847783 0.99178201 -0.023375301 -0.125782 0.24452649
4.8148994 16.573318 -0.32208619 0.05157806 0.99844599 -0.0093312701 -0.0549508 0.22073114
4.8160605 16.604784 -0.32690305 0.044051796 0.95956397 -0.048918899 -0.27720699 0.30014795
4.8200197 16.449287 -0.29737663 0.046109069 0.99765497 -0.0073279999 -0.068045698 0.21356191
4.8206477 16.441677 -0.29498005 0.046813387 0.99988902 -0.00099096994 -0.0148646 0.18775581
4.8196583 16.464867 -0.30016804 0.049413405 0.99781799 -0.0052241799 -0.065824598 0.23414196
4.8197732 16.458954 -0.29922581 0.046078701 0.99766803 -0.0052343602 -0.0680466 0.22701402
4.8203583 16.430485 -0.29375586 0.042399798 0.97424102 -0.034923401 -0.22278699 0.28419057
4.8204336 16.430136 -0.29355618 0.044785865 0.99572498 -0.0139638 -0.091301702 0.23525801
4.8214359 16.434885 -0.29170454 0.02763173 0.99999899 0.00097751606 -0.00097751606 0.13299574
4.8214579 16.426249 -0.29067892 0.027613511 0.99999899 0.00097751606 -0.00097751606 0.13525611
4.8209558 16.435863 -0.29317579 0.040472388 0.99999899 0.00097751606 -0.00097751606 0.14255318
4.8224444 16.431271 -0.28776246 0.027118493 0.99999899 0.00097751606 -0.00097751606 0.1071692
4.8209248 16.402061 -0.28828391 0.048356369 0.99414003 -0.0207796 -0.106085 0.24273345
4.8209424 16.40572 -0.28874731 0.038158134 0.99999899 -0.00097751606 -0.00097751606 0.19513966
4.8210859 16.423956 -0.29142165 0.040451918 0.99999899 0.00097751606 -0.00097751606 0.17843153
4.8195763 16.479984 -0.30151385 0.033010561 0.99999499 -0.00098134996 -0.0029440499 0.15495335
4.819263 16.495047 -0.30339447 0.032998942 0.99999499 -0.00097942702 -0.0029382801 0.1629674
4.8164787 16.524157 -0.31275371 0.042825628 0.999991 -0.0029440401 -0.0029440401 0.19244766
4.820787 16.393911 -0.28711212 0.051564008 0.95065498 -0.073724203 -0.301364 0.301153
4.821466 16.393879 -0.28540146 0.038176447 0.99999899 -0.00097751606 -0.00097751606 0.19452864
4.8158956 16.530285 -0.31404394 0.042793993 0.999991 -0.0029440401 -0.0029440401 0.18001838
4.8163562 16.539051 -0.31445199 0.023758648 0.99999899 -0.00097943097 -0.00097943097 0.18941925
4.8146305 16.557076 -0.31936693 0.049428225 0.96775901 -0.038023502 -0.248992 0.30046278
4.8154254 16.591467 -0.32466793 0.042462237 0.99999899 0.00097751606 -0.00097751606 0.18148355
4.8172288 16.598425 -0.32367691 0.019771157 0.99999899 0.00097751606 -0.00097751606 0.14411032
4.8164387 16.607924 -0.32697091 0.0468782 0.99999899 -0.00097751606 -0.00097751606 0.19696796
4.8176541 16.617462 -0.32761851 0.046871439 0.99999899 -0.00097751606 -0.00097751606 0.20266144
4.8161235 16.56473 -0.31903964 0.017261948 0.99999899 0.00097751606 -0.00097751606 0.12556525
4.8184094 16.602724 -0.32559997 0.050805382 0.407673 -0.25423101 -0.87702298 0.3416822
4.8120608 16.66522 -0.33836886 0.017493783 0.0195763 -0.17388301 -0.98457199 0.11552268
4.8121033 16.830267 -0.36917481 0.022690918 0.0218783 -0.173875 -0.98452502 0.12864126
4.8157048 16.831909 -0.36796379 0.0371347 0.0218783 -0.173875 -0.98452502 0.16410236
4.8103485 16.808044 -0.36564603 0.022701366 0.0218783 -0.173875 -0.98452502 0.1023486
4.8130465 16.813715 -0.36564374 0.022709165 0.021927999 -0.17427 -0.98445398 0.11691303
4.8155313 16.612902 -0.32843605 0.034381274 0.0289793 -0.175035 -0.98413599 0.19154549
4.8160872 16.778522 -0.35800716 0.045276027 0.026601899 -0.174647 -0.984272 0.14103277
4.8154626 16.801716 -0.36216965 0.041396648 0.021927999 -0.17427 -0.98445398 0.14375204
4.8135161 16.787046 -0.36048847 0.02912919 0.024235001 -0.174261 -0.98440099 0.13555948
4.8165898 16.611624 -0.32783628 0.040533211 0.031367 -0.175423 -0.98399299 0.21302548
4.8157754 16.621262 -0.3294895 0.034384448 0.0289793 -0.175035 -0.98413599 0.20425977
4.8173614 16.70245 -0.34388357 0.031177878 0.043232199 -0.167087 -0.98499399 0.18081449
4.8155427 16.695992 -0.34344992 0.026669385 0.0407895 -0.16898499 -0.98477399 0.14613615
4.8181996 16.684393 -0.3394092 0.031296115 0.0407895 -0.16898499 -0.98477399 0.18926704
4.8186736 16.674589 -0.33738685 0.031579744 0.033638 -0.17050999 -0.98478198 0.18886809
4.8183355 16.746578 -0.35170496 0.035461407 0.036393698 -0.181969 -0.98263103 0.18505765
4.8157263 16.746679 -0.35301709 0.035656314 0.0266518 -0.177292 -0.98379701 0.14573325
4.8171639 16.730999 -0.3495656 0.03551922 0.033892099 -0.18114799 -0.98287201 0.17219289
4.8194427 16.709953 -0.34431511 0.044909663 0.053146102 -0.171249 -0.98379302 0.18712591
4.8189831 16.719986 -0.34646463 0.044989001 0.045825601 -0.17507701 -0.98348802 0.18268195
4.8150239 16.763868 -0.35624176 0.03392978 0.070181899 -0.165344 -0.98373598 0.16318834
4.8173404 16.761383 -0.35475594 0.048458286 0.150971 -0.150971 -0.976942 0.19803494
4.8140574 16.759184 -0.3558065 0.03544917 0.0313797 -0.173169 -0.98439199 0.15579493
4.8184643 16.760166 -0.35387659 0.04849856 0.18468399 -0.146474 -0.97182202 0.21137132
4.8171721 16.844732 -0.36967096 0.045953203 0.0219192 -0.176507 -0.98405498 0.16899152
4.8174028 16.855482 -0.37153202 0.035975449 0.053124499 -0.17354 -0.98339301 0.17862742
4.8175297 16.851078 -0.37070021 0.048128266 0.038608499 -0.17432299 -0.98393101 0.18121064
4.8148079 16.85844 -0.37322617 0.02096259 0.0195763 -0.17388301 -0.98457199 0.147247
4.8145776 16.871574 -0.37536648 0.020832343 0.0218783 -0.173875 -0.98452502 0.15302591
4.8197279 16.869709 -0.37230077 0.05522472 0.112316 -0.17155901 -0.978751 0.21024129
4.8171215 16.876974 -0.37486947 0.0270194 0.033701502 -0.17315599 -0.98431802 0.16537049
4.8158827 16.852648 -0.37179407 0.02733241 0.0266126 -0.17240299 -0.984667 0.159715
4.8185906 16.643604 -0.33205202 0.034534674 0.0242803 -0.176899 -0.98392898 0.19681136
4.8201632 16.679516 -0.33730635 0.047962885 0.204346 -0.18588901 -0.96108699 0.26113686
4.8190622 16.648676 -0.33281356 0.051324107 0.060630299 -0.17238 -0.983163 0.21364461
4.8196797 16.667179 -0.33560276 0.048073038 0.19374999 -0.170344 -0.96614897 0.26195851
4.8206244 16.672794 -0.33583635 0.052912898 0.279383 -0.173081 -0.94445097 0.28742877
4.8164072 16.80517 -0.3627266 0.040762678 0.50161701 -0.15151501 -0.85171801 0.29929164
4.8163314 16.813292 -0.36417085 0.04324488 0.134058 -0.171645 -0.975995 0.19687384
4.8184061 16.624218 -0.32861871 0.04876402 0.0242902 -0.174658 -0.98433 0.20269027
4.818912 16.616449 -0.32755008 0.053519033 0.228807 -0.167968 -0.95887101 0.28443164
4.8171 16.782917 -0.35822678 0.047319215 0.18179201 -0.171478 -0.96827 0.2089233
4.8174686 16.775841 -0.35692382 0.0502267 0.114295 -0.165912 -0.97949499 0.1903569
4.818006 16.787785 -0.35853553 0.045509044 0.43433201 -0.154397 -0.88742203 0.26485705
